ncols         400
nrows         56
xllcorner     1297000
yllcorner     5061150
cellsize      50
NODATA_value  -9999
792 781 778 777 778 784 788 793 793 779 756 744 744 743 738 738 763 786 782 767 753 749 746 738 749 781 825 859 851 830 807 778 763 764 766 786 798 799 816 845 877 884 870 855 837 816 795 777 758 732 706 680 657 637 613 590 561 530 505 475 459 466 487 510 530 546 566 591 611 623 635 651 677 708 734 752 756 746 731 709 687 666 645 625 604 584 564 546 531 518 505 489 471 453 433 412 393 373 354 348 347 348 348 348 348 348 348 348 348 348 348 348 348 348 348 348 348 348 348 348 348 348 348 348 348 348 348 348 348 348 348 348 348 348 348 348 348 348 348 348 348 348 348 348 348 348 348 348 348 348 348 348 348 348 348 348 348 348 348 348 348 348 348 348 348 348 348 348 348 348 348 348 348 348 348 348 348 348 348 348 348 348 348 347 347 348 351 357 363 368 374 382 396 416 442 469 499 532 571 602 619 637 663 697 725 756 795 837 868 890 904 911 923 941 970 1006 1041 1082 1112 1133 1142 1131 1106 1086 1072 1070 1082 1101 1105 1074 1040 1016 998 978 948 925 913 897 891 913 938 965 1001 1042 1070 1074 1062 1050 1052 1070 1095 1109 1095 1075 1056 1035 1016 997 974 949 922 894 870 846 822 808 801 790 779 763 749 742 739 721 694 665 636 611 586 560 533 508 492 505 528 549 564 572 589 616 645 675 722 778 813 834 849 859 877 893 907 923 937 946 963 983 980 958 936 917 897 877 859 842 823 803 786 769 744 720 701 681 665 654 640 623 607 590 570 560 566 586 609 632 651 674 703 734 754 776 803 839 880 922 956 959 950 948 951 956 960 966 975 987 1003 1027 1043 1049 1059 1069 1078 1100 1117 1118 1120 1119 1103 1085 1063 1036 1009 983 956 926 893 875 867 858 847 850 883 925 949 964 987 1006 997 972 947 924 903 883 861 845 867 910 941 957 954 937
803 782 766 757 755 755 754 758 761 757 741 724 717 718 725 744 771 780 765 746 729 714 709 719 744 779 821 844 830 812 792 765 741 733 737 760 772 774 792 824 859 868 857 847 827 803 784 768 751 727 701 674 648 624 601 581 559 534 509 477 459 466 486 502 515 531 550 575 602 623 643 665 694 726 751 758 755 747 734 714 692 668 645 623 601 581 562 544 529 516 504 491 474 453 433 413 394 374 356 348 347 348 348 348 348 348 348 348 348 348 348 348 348 348 348 348 348 348 348 348 348 348 348 348 348 348 348 348 348 348 348 348 348 348 348 348 348 348 348 348 348 348 348 348 348 348 348 348 348 348 348 348 348 348 348 348 348 348 348 348 348 348 348 348 348 348 348 348 348 348 348 348 348 348 348 348 348 348 348 348 348 348 348 348 347 348 350 355 361 367 373 383 397 415 439 467 501 537 576 607 631 658 693 731 760 782 809 845 874 901 927 944 957 974 998 1028 1063 1100 1120 1127 1122 1110 1088 1066 1049 1043 1057 1078 1087 1059 1021 990 970 953 929 904 889 876 866 883 912 949 980 1010 1035 1039 1032 1022 1024 1042 1073 1092 1079 1059 1042 1025 1006 986 963 939 912 884 860 834 809 795 785 770 756 739 720 715 726 717 695 670 646 623 598 570 545 519 493 487 505 523 535 550 575 603 633 666 706 752 783 802 813 816 830 844 861 882 897 914 940 966 972 954 932 913 890 866 846 828 809 786 765 748 728 704 683 666 650 634 620 606 595 583 566 560 575 600 624 649 677 701 731 761 780 801 823 853 892 946 983 985 981 983 986 988 988 990 995 998 1004 1014 1016 1016 1028 1038 1061 1085 1080 1072 1079 1083 1068 1058 1053 1037 1010 982 955 928 897 872 850 832 826 844 874 902 915 927 954 981 978 954 928 904 882 861 839 824 842 871 895 921 928 913
823 803 780 759 747 737 728 724 723 722 716 704 699 711 728 749 767 768 752 730 709 692 693 719 750 784 813 825 812 796 779 754 727 707 710 730 743 754 776 810 846 856 847 836 814 790 771 751 730 711 690 668 643 620 597 577 557 534 508 475 459 466 484 503 518 530 545 563 584 606 627 652 683 722 752 755 750 742 728 710 690 666 641 618 596 576 558 541 527 514 503 491 476 455 434 414 395 378 360 349 347 348 348 348 348 348 348 348 348 348 348 348 348 348 348 348 348 348 348 348 348 348 348 348 348 348 348 348 348 348 348 348 348 348 348 348 348 348 348 348 348 348 348 348 348 348 348 348 348 348 348 348 348 348 348 348 348 348 348 348 348 348 348 348 348 348 348 348 348 348 348 348 348 348 348 348 348 348 348 348 348 348 348 348 347 347 349 354 360 367 375 385 398 414 434 459 490 525 560 591 624 665 706 743 766 779 796 825 850 879 908 935 963 996 1029 1064 1090 1101 1099 1094 1093 1087 1070 1051 1029 1017 1029 1056 1072 1048 1009 974 949 928 906 885 868 849 839 862 897 930 955 983 1001 1004 1006 1001 1001 1018 1053 1072 1059 1044 1031 1016 996 975 956 932 904 877 851 825 802 789 778 759 738 715 693 688 709 709 686 663 643 623 599 573 548 524 498 481 487 504 523 547 576 604 632 661 693 728 755 771 779 781 791 805 827 843 866 902 929 950 963 950 926 904 884 860 838 816 797 773 750 734 716 692 667 650 634 617 599 580 568 563 560 564 586 617 640 660 697 733 761 787 807 833 854 878 919 973 1008 1010 1007 1009 1012 1008 998 991 987 977 972 976 976 979 997 1018 1045 1052 1032 1020 1035 1047 1031 1019 1025 1028 1011 983 955 932 902 874 848 823 813 834 856 872 884 902 934 964 962 939 912 888 865 845 823 802 807 830 859 890 902 890
845 826 805 782 758 737 723 714 708 699 690 682 684 700 711 722 737 742 733 712 689 676 689 720 745 767 783 792 791 780 759 733 711 692 691 707 721 739 767 801 835 849 843 825 798 773 752 728 704 687 667 646 627 610 593 575 554 531 508 479 459 462 482 509 531 548 566 583 597 608 623 648 684 724 747 743 740 734 720 703 685 662 639 615 592 572 554 538 526 513 502 491 479 458 436 416 397 381 364 350 347 347 348 348 348 348 348 348 348 348 348 348 348 348 348 348 348 348 348 348 348 348 348 348 348 348 348 348 348 348 348 348 348 348 348 348 348 348 348 348 348 348 348 348 348 348 348 348 348 348 348 348 348 348 348 348 348 348 348 348 348 348 348 348 348 348 348 348 348 348 348 348 348 348 348 348 348 348 348 348 348 348 348 348 347 347 349 354 361 369 378 388 400 415 435 456 482 512 540 575 621 663 696 720 732 741 762 788 813 843 875 913 953 990 1032 1075 1088 1077 1065 1058 1057 1056 1048 1034 1012 994 1001 1029 1052 1035 999 964 936 914 892 870 849 827 817 843 876 904 936 966 971 971 978 975 974 995 1028 1048 1041 1031 1023 1008 989 970 950 925 895 868 844 820 800 785 770 752 730 705 680 672 693 698 676 652 630 610 589 565 541 518 494 479 481 503 531 557 586 614 641 663 684 705 720 733 744 746 754 771 795 816 850 887 911 938 957 945 920 899 880 858 834 807 784 760 737 718 704 685 659 639 620 601 580 562 556 560 569 584 610 640 664 678 708 749 785 814 841 867 887 907 944 996 1028 1032 1024 1016 1012 1000 979 963 955 943 932 931 934 947 972 1003 1019 1010 992 977 991 1010 997 982 987 1001 1004 985 957 934 905 874 849 824 802 803 823 840 861 893 928 950 943 920 894 870 847 829 808 783 781 810 846 876 881 870
852 831 808 785 758 743 739 736 727 710 693 677 671 673 676 686 702 711 712 697 673 666 685 708 724 737 749 758 766 762 741 712 690 676 676 693 714 737 767 799 829 845 842 820 788 758 731 704 680 658 637 619 602 590 582 569 549 528 509 484 457 459 482 508 527 551 581 607 622 632 646 671 701 720 725 722 725 721 711 693 674 655 633 610 587 567 550 536 525 512 501 492 482 463 438 418 399 383 367 352 348 347 348 348 348 348 348 348 348 348 348 348 348 348 348 348 348 348 348 348 348 348 348 348 348 348 348 348 348 348 348 348 348 348 348 348 348 348 348 348 348 348 348 348 348 348 348 348 348 348 348 348 348 348 348 348 348 348 348 348 348 348 348 348 348 348 348 348 348 348 348 348 348 348 348 348 348 348 348 348 348 348 348 348 347 347 349 354 361 370 380 392 403 416 433 453 475 502 529 565 610 641 664 678 687 706 733 755 786 826 868 906 938 971 1018 1060 1060 1043 1034 1031 1027 1023 1018 1007 990 971 975 1000 1026 1016 987 954 927 906 882 856 832 810 802 822 852 886 927 948 939 937 944 941 943 969 1008 1035 1030 1019 1014 1001 984 964 943 917 885 859 837 818 800 779 761 741 722 703 678 662 669 676 666 646 622 600 580 556 533 511 488 478 483 501 524 554 584 610 633 653 668 676 680 690 705 712 727 757 790 822 852 881 909 944 962 944 920 898 876 852 828 803 779 756 730 706 688 673 656 635 613 590 567 550 557 577 599 622 645 666 695 713 726 756 802 843 874 903 924 939 969 1013 1027 1018 1007 997 987 973 949 930 917 904 893 892 903 931 966 988 985 974 959 947 961 983 971 950 951 968 985 981 958 933 903 874 850 826 801 783 790 812 845 886 919 935 925 901 876 851 828 808 787 766 771 806 844 863 858 849
831 809 789 776 764 763 766 767 754 728 704 690 683 671 657 655 667 672 677 678 661 655 668 676 688 704 716 724 735 735 718 694 672 657 661 684 711 736 761 787 816 834 833 815 787 758 725 693 666 642 621 602 582 568 566 559 542 523 504 477 451 455 480 503 520 544 576 607 629 646 665 687 698 693 689 691 704 709 704 687 664 643 621 601 581 562 546 534 524 512 501 495 486 466 441 418 401 386 371 355 348 347 348 348 348 348 348 348 348 348 348 348 348 348 348 348 348 348 348 348 348 348 348 348 348 348 348 348 348 348 348 348 348 348 348 348 348 348 348 348 348 348 348 348 348 348 348 348 348 348 348 348 348 348 348 348 348 348 348 348 348 348 348 348 348 348 348 348 348 348 348 348 348 348 348 348 348 348 348 348 348 348 348 348 347 347 349 354 361 371 381 394 405 415 427 443 462 486 517 552 584 602 617 631 651 680 706 733 776 821 860 890 922 961 1009 1044 1029 1010 1007 1010 1010 1002 988 976 961 943 949 976 1003 999 973 939 916 896 868 840 817 795 783 805 837 873 907 918 909 904 909 909 917 949 998 1027 1020 1007 1000 992 979 959 937 911 879 852 834 818 798 775 755 734 715 696 674 656 651 652 654 641 616 593 573 548 526 502 481 479 489 500 510 536 567 594 614 630 640 642 646 656 673 694 726 769 809 843 872 899 928 960 965 943 919 897 873 850 826 801 776 755 731 707 683 662 647 627 605 581 557 546 564 593 622 652 679 699 729 751 763 780 812 858 900 935 962 976 990 1006 1000 982 972 970 959 941 918 897 882 867 853 857 886 928 958 957 945 935 921 909 924 952 943 917 916 936 951 957 951 931 901 875 851 827 802 775 764 777 810 853 885 904 902 883 858 833 809 786 764 749 770 808 841 843 833 828
816 796 788 785 783 785 791 790 770 739 714 711 708 689 667 650 644 641 642 651 643 629 632 636 649 669 682 693 701 700 692 675 653 637 645 670 698 719 736 764 797 808 804 796 783 762 733 701 672 647 625 604 578 556 548 541 526 508 489 464 447 457 487 510 524 540 563 588 610 633 658 675 672 660 654 660 682 697 697 684 661 637 613 593 574 556 542 531 522 512 502 499 490 468 442 420 403 389 375 360 349 347 347 348 348 348 348 348 348 348 348 348 348 348 348 348 348 348 348 348 348 348 348 348 348 348 348 348 348 348 348 348 348 348 348 348 348 348 348 348 348 348 348 348 348 348 348 348 348 348 348 348 348 348 348 348 348 348 348 348 348 348 348 348 348 348 348 348 348 348 348 348 348 348 348 348 348 348 348 348 348 348 348 348 347 347 348 353 361 371 381 393 405 416 428 440 456 476 506 535 555 565 578 595 624 657 688 723 764 806 844 884 925 968 1012 1025 1004 987 985 989 993 985 967 946 925 913 924 951 980 982 955 925 903 882 855 830 808 783 767 788 819 850 875 882 878 869 872 878 893 933 982 1009 1006 995 988 981 967 952 935 910 877 851 835 819 797 776 757 735 712 689 667 649 637 631 635 631 611 588 566 541 517 492 477 478 496 515 524 532 550 573 590 600 609 616 630 652 677 707 740 774 809 842 875 914 948 964 953 933 913 893 871 850 825 800 774 751 730 707 683 659 640 619 599 573 549 549 575 606 635 668 703 731 756 781 809 820 831 870 916 958 987 994 991 980 962 945 935 940 932 911 887 864 848 833 821 837 879 922 941 927 912 899 879 864 884 916 909 883 881 904 911 918 934 927 901 876 852 827 802 774 750 741 760 800 835 859 873 864 840 817 791 764 741 738 775 813 831 820 808 806
816 805 805 804 803 807 812 803 774 744 729 736 730 706 684 668 651 639 631 629 624 613 608 608 615 629 644 660 668 666 660 649 631 618 631 658 678 694 711 746 779 778 767 760 754 747 734 716 693 667 642 616 586 560 542 526 509 488 465 448 448 468 495 511 517 531 554 579 602 623 644 654 639 626 623 637 665 684 686 676 657 633 612 592 571 552 539 528 518 508 502 500 490 468 444 423 406 392 379 365 352 348 347 348 348 348 348 348 348 348 348 348 348 348 348 348 348 348 348 348 348 348 348 348 348 348 348 348 348 348 348 348 348 348 348 348 348 348 348 348 348 348 348 348 348 348 348 348 348 348 348 348 348 348 348 348 348 348 348 348 348 348 348 348 348 348 348 348 348 348 348 348 348 348 348 348 348 348 348 348 348 348 348 348 347 347 348 352 360 370 380 391 405 420 437 454 469 482 496 515 531 552 574 599 627 661 700 735 775 817 860 902 943 985 1013 1004 983 968 961 962 963 956 944 923 897 886 899 927 960 968 944 916 893 869 844 823 801 776 756 767 796 822 840 842 840 835 842 854 875 915 957 987 992 986 978 969 955 943 931 910 882 859 842 823 802 782 760 735 707 682 658 639 624 615 615 612 597 583 561 534 508 484 472 473 491 520 539 544 548 561 573 584 598 615 642 670 699 734 763 787 811 839 875 923 957 958 940 920 901 881 859 839 817 794 769 744 721 698 678 658 638 619 597 569 546 552 584 616 642 677 716 749 775 803 839 859 866 893 934 969 989 981 966 948 929 911 901 906 904 881 857 835 816 800 796 826 874 909 911 892 877 863 839 829 859 893 884 856 849 867 873 879 904 912 898 876 850 825 797 772 745 719 717 743 780 816 841 842 825 799 770 739 718 729 771 799 811 800 783 778
825 819 825 825 824 830 833 811 776 754 755 764 752 726 707 690 669 656 645 636 628 621 618 609 603 605 616 627 633 630 626 620 609 600 616 640 651 668 693 730 758 749 729 719 713 711 707 707 707 688 661 633 603 576 555 532 508 477 449 443 458 484 497 494 499 521 553 582 602 612 626 630 609 594 600 618 644 667 674 669 651 629 609 589 568 549 536 526 515 504 500 501 490 469 446 427 411 396 383 370 358 349 348 347 348 348 348 348 348 348 348 348 348 348 348 348 348 348 348 348 348 348 348 348 348 348 348 348 348 348 348 348 348 348 348 348 348 348 348 348 348 348 348 348 348 348 348 348 348 348 348 348 348 348 348 348 348 348 348 348 348 348 348 348 348 348 348 348 348 348 348 348 348 348 348 348 348 348 348 348 348 348 348 348 347 347 348 351 359 368 378 390 405 426 448 472 492 503 507 519 541 572 601 633 661 684 717 756 801 842 884 926 967 995 997 980 966 952 942 936 932 924 915 900 877 863 876 905 941 958 940 912 885 858 834 815 793 769 748 744 765 790 802 801 799 803 818 837 866 902 939 968 979 979 971 960 950 939 926 908 887 864 843 822 803 784 761 731 704 682 659 637 617 603 593 583 570 565 556 533 504 479 467 467 482 512 539 551 562 575 583 595 608 627 654 682 715 752 784 809 831 854 889 931 955 948 926 905 884 859 837 819 797 773 752 730 707 684 665 646 626 609 588 561 545 560 591 620 647 681 721 756 788 821 856 885 900 916 945 965 970 956 934 914 896 880 868 871 872 851 831 808 786 770 779 818 867 889 872 850 835 821 804 805 841 877 870 840 824 831 837 842 861 877 880 867 843 820 793 767 738 708 692 702 730 767 796 813 807 779 746 713 698 722 750 765 782 779 761 748
838 841 852 852 852 858 851 817 785 778 786 789 770 745 723 704 692 685 671 656 643 636 636 626 614 603 595 596 598 597 595 593 590 585 598 611 625 654 681 708 729 716 692 680 674 670 666 674 693 694 677 650 620 592 567 539 513 480 450 444 462 485 483 471 484 514 548 576 586 588 604 607 586 572 584 600 626 653 666 664 648 626 605 582 562 545 533 523 511 501 500 501 490 470 450 432 416 402 388 375 363 352 348 347 348 348 348 348 348 348 348 348 348 348 348 348 348 348 348 348 348 348 348 348 348 348 348 348 348 348 348 348 348 348 348 348 348 348 348 348 348 348 348 348 348 348 348 348 348 348 348 348 348 348 348 348 348 348 348 348 348 348 348 348 348 348 348 348 348 348 348 348 348 348 348 348 348 348 348 348 348 348 348 348 348 347 347 350 357 366 376 388 404 426 449 475 499 517 531 548 573 603 633 669 698 718 742 774 813 852 895 938 971 979 966 952 947 938 927 918 908 899 890 878 859 844 857 887 922 947 939 911 879 848 823 803 781 761 742 727 734 753 762 763 768 786 811 839 877 908 932 949 956 961 956 948 945 938 920 902 881 856 833 814 797 781 758 730 708 689 667 642 618 597 577 561 549 543 541 534 510 482 464 461 472 500 528 549 568 588 600 614 627 641 661 686 713 742 773 801 825 855 898 932 937 918 899 884 864 839 820 800 776 753 733 713 690 667 646 626 607 591 569 549 555 582 607 632 660 691 726 760 796 833 869 898 913 920 929 935 938 930 907 882 864 851 839 842 843 828 807 781 757 746 768 810 855 868 843 820 804 789 775 785 826 865 863 834 807 795 797 809 822 836 847 848 833 811 784 754 726 700 681 677 698 732 765 790 787 756 719 685 678 708 719 721 739 753 742 722
855 868 883 886 882 877 853 819 799 805 815 810 785 758 740 729 722 712 696 675 659 654 654 645 633 618 602 594 590 585 579 574 572 570 576 583 606 639 661 682 696 687 663 645 639 633 629 640 661 673 674 658 630 601 572 543 517 493 464 445 450 459 455 448 468 504 537 561 561 562 581 585 566 557 569 588 615 642 659 660 644 623 600 576 557 541 528 517 506 499 501 504 493 473 454 438 422 407 393 379 366 355 348 347 348 348 348 348 348 348 348 348 348 348 348 348 348 348 348 348 348 348 348 348 348 348 348 348 348 348 348 348 348 348 348 348 348 348 348 348 348 348 348 348 348 348 348 348 348 348 348 348 348 348 348 348 348 348 348 348 348 348 348 348 348 348 348 348 348 348 348 348 348 348 348 348 348 348 348 348 348 348 348 348 348 347 347 349 355 364 375 388 405 426 448 472 496 521 550 577 607 633 661 700 740 765 785 806 834 871 910 945 954 946 936 925 921 919 911 904 896 888 878 865 845 830 840 871 907 936 933 906 873 841 814 790 770 752 731 712 708 720 726 731 750 788 824 856 885 897 902 909 919 930 930 927 935 935 918 895 869 840 817 801 787 771 751 732 717 700 676 646 619 597 580 571 561 545 531 526 514 486 463 458 463 485 517 544 565 588 607 624 640 652 664 678 693 717 748 782 809 844 890 914 902 880 866 857 840 821 806 785 763 742 722 700 677 653 633 611 591 570 550 552 579 610 632 655 680 708 737 767 802 841 875 894 896 894 894 896 900 899 883 859 838 823 812 810 813 801 779 754 729 726 761 806 848 857 831 804 784 765 752 769 806 845 855 830 799 774 764 775 789 802 812 824 817 793 765 736 711 688 668 657 678 715 753 776 765 728 691 661 654 677 678 673 687 715 716 694
875 894 915 914 895 871 843 821 815 828 840 826 802 778 764 752 733 715 702 689 677 674 680 676 663 644 630 623 612 602 594 583 572 565 561 562 588 620 634 653 664 661 641 616 605 598 596 607 625 639 646 648 634 607 577 550 528 509 485 455 441 439 434 433 453 490 525 543 537 540 560 565 548 539 554 581 607 630 652 655 639 618 595 572 553 537 523 510 501 499 505 509 497 478 459 443 428 413 398 383 370 358 349 347 348 348 348 348 348 348 348 348 348 348 348 348 348 348 348 348 348 348 348 348 348 348 348 348 348 348 348 348 348 348 348 348 348 348 348 348 348 348 348 348 348 348 348 348 348 348 348 348 348 348 348 348 348 348 348 348 348 348 348 348 348 348 348 348 348 348 348 348 348 348 348 348 348 348 348 348 348 348 348 348 348 347 347 349 353 362 373 388 406 429 452 476 502 530 564 599 633 660 692 733 771 793 812 832 855 888 923 941 931 921 910 898 892 892 891 889 884 878 871 860 840 822 827 858 897 929 925 897 868 837 809 784 763 745 723 702 690 692 695 712 745 792 835 856 862 860 860 869 880 899 905 909 925 925 912 891 861 831 809 791 774 753 736 724 717 707 680 650 631 614 604 603 593 567 540 519 507 489 465 458 459 474 506 536 558 580 601 620 632 636 645 657 674 702 736 771 800 835 876 888 871 852 838 828 813 798 782 763 744 726 708 687 665 642 620 596 573 551 547 573 608 636 659 681 704 728 752 779 808 847 876 878 867 861 862 864 866 866 860 844 820 800 785 775 774 766 748 726 705 711 751 802 840 848 824 790 764 739 730 753 783 816 833 815 789 762 743 745 760 770 776 791 792 771 744 717 690 666 646 640 668 708 743 759 742 705 671 643 622 623 619 616 627 655 670 656
896 921 938 913 883 863 847 842 840 854 862 840 811 786 771 755 738 725 715 707 695 697 709 710 695 675 664 656 640 626 616 603 587 576 565 552 569 595 605 623 631 628 617 594 575 564 562 572 588 601 607 622 630 615 589 565 548 527 503 473 452 440 429 427 447 477 507 519 513 523 543 545 530 524 543 572 599 620 641 647 633 612 589 567 549 534 517 503 498 500 511 516 502 484 464 448 434 419 403 386 372 359 349 347 347 348 348 348 348 348 348 348 348 348 348 348 348 348 348 348 348 348 348 348 348 348 348 348 348 348 348 348 348 348 348 348 348 348 348 348 348 348 348 348 348 348 348 348 348 348 348 348 348 348 348 348 348 348 348 348 348 348 348 348 348 348 348 348 348 348 348 348 348 348 348 348 348 348 348 348 348 348 348 348 348 347 347 348 353 361 372 388 408 429 452 476 506 540 577 614 647 678 711 741 765 785 806 832 859 893 921 924 912 902 889 875 865 864 870 872 867 858 855 847 831 814 816 849 890 921 917 889 860 832 806 781 758 737 714 693 674 671 685 711 748 795 823 823 821 819 822 833 845 865 881 896 907 898 886 873 854 832 808 783 756 732 714 700 694 693 682 666 657 649 643 639 618 587 557 527 505 491 469 458 458 469 497 524 549 578 600 609 611 613 627 647 671 700 732 762 790 823 856 862 845 829 816 805 789 771 752 734 716 701 685 668 649 626 603 578 552 538 564 603 628 652 681 706 727 745 764 789 816 845 863 855 840 830 830 835 836 836 835 829 806 781 761 744 738 733 719 699 686 700 731 775 807 820 809 775 745 717 710 732 756 779 788 780 772 756 733 722 732 738 745 761 767 750 724 697 666 638 620 629 667 701 722 733 726 695 662 632 599 577 573 575 578 598 615 610
924 948 945 910 893 884 877 875 869 877 874 845 818 802 789 779 771 763 749 729 716 724 739 742 723 711 705 690 666 643 626 611 597 588 576 556 553 562 569 585 596 593 581 564 548 534 528 537 552 558 559 580 608 616 602 585 564 541 517 490 467 450 432 424 434 455 484 496 494 510 527 524 512 515 539 568 595 617 637 643 630 607 583 562 545 529 510 498 496 503 516 520 507 488 470 454 439 425 407 389 374 359 349 348 347 348 348 348 348 348 348 348 348 348 348 348 348 348 348 348 348 348 348 348 348 348 348 348 348 348 348 348 348 348 348 348 348 348 348 348 348 348 348 348 348 348 348 348 348 348 348 348 348 348 348 348 348 348 348 348 348 348 348 348 348 348 348 348 348 348 348 348 348 348 348 348 348 348 348 348 348 348 348 348 348 347 347 349 354 363 375 390 412 434 455 479 507 545 580 615 648 679 708 732 753 778 802 833 865 898 911 903 893 883 871 859 847 841 844 850 847 837 830 821 813 801 805 839 882 910 903 877 848 821 795 773 750 728 706 683 661 660 681 706 741 784 797 784 777 776 783 801 820 844 872 895 891 874 859 846 836 820 800 775 745 718 697 678 666 667 673 676 675 669 664 656 633 604 575 543 515 495 472 459 458 465 487 512 544 579 597 591 589 603 623 644 669 695 723 748 775 805 834 840 827 812 797 782 764 744 726 711 694 677 663 649 631 609 585 558 535 550 604 644 658 673 699 725 744 759 775 798 818 827 831 828 817 803 798 803 807 808 806 807 795 768 743 721 706 700 688 672 671 685 701 736 765 782 778 755 730 704 691 705 726 740 740 735 738 740 727 707 702 704 711 724 736 726 702 673 643 614 595 611 645 670 684 698 702 685 659 628 591 568 579 595 589 585 586 586
958 970 952 929 924 917 915 910 903 901 884 859 847 840 829 818 808 795 775 751 743 756 771 771 755 746 735 708 679 651 630 617 607 600 589 572 557 549 545 551 560 559 545 532 525 517 510 511 517 514 517 541 576 601 605 597 577 551 528 502 472 450 434 425 423 431 459 474 475 492 507 504 495 507 535 565 593 617 637 642 629 603 579 559 542 523 505 495 497 507 520 522 513 494 477 460 445 429 410 389 373 359 349 348 347 348 348 348 348 348 348 348 348 348 348 348 348 348 348 348 348 348 348 348 348 348 348 348 348 348 348 348 348 348 348 348 348 348 348 348 348 348 348 348 348 348 348 348 348 348 348 348 348 348 348 348 348 348 348 348 348 348 348 348 348 348 348 348 348 348 348 348 348 348 348 348 348 348 348 348 348 348 348 348 348 347 347 349 356 366 378 393 413 438 465 492 516 547 581 615 646 675 702 728 753 781 812 846 878 897 894 882 873 865 855 844 830 816 813 820 824 817 806 796 790 784 796 832 875 896 882 857 829 803 777 757 738 719 700 675 650 645 660 684 720 757 765 751 742 741 754 782 813 854 894 903 883 860 838 821 809 795 778 762 742 712 683 662 647 643 651 665 666 657 652 648 636 616 587 555 526 503 476 460 457 461 478 506 538 574 586 574 577 597 615 635 660 685 709 730 754 784 812 820 810 794 777 761 742 722 707 693 675 659 645 630 611 588 564 538 534 577 634 672 688 701 722 747 768 781 789 798 799 797 797 796 789 775 770 776 780 781 778 783 784 761 733 706 684 667 652 653 660 658 661 687 714 728 731 721 705 685 668 674 689 700 702 698 694 701 705 692 677 671 674 681 696 695 672 646 619 590 569 572 591 611 632 650 655 654 644 618 584 567 589 614 615 603 603 608
994 991 969 962 964 959 955 944 936 924 902 889 887 880 866 848 832 818 799 778 773 791 805 801 786 771 746 713 682 655 639 629 623 620 611 592 574 561 551 543 541 538 531 529 528 524 519 510 502 493 499 522 553 576 585 590 582 560 535 503 464 441 434 435 429 425 442 452 453 466 484 480 477 501 528 557 583 610 632 639 627 599 575 556 537 518 502 493 496 509 521 524 517 501 485 469 452 433 410 388 372 358 349 348 347 348 348 348 348 348 348 348 348 348 348 348 348 348 348 348 348 348 348 348 348 348 348 348 348 348 348 348 348 348 348 348 348 348 348 348 348 348 348 348 348 348 348 348 348 348 348 348 348 348 348 348 348 348 348 348 348 348 348 348 348 348 348 348 348 348 348 348 348 348 348 348 348 348 348 348 348 348 348 348 348 347 347 349 356 367 380 396 416 440 469 498 524 553 588 625 660 688 712 738 764 794 829 865 885 880 869 857 850 846 839 828 812 793 782 786 793 791 784 777 767 766 787 828 866 869 855 834 809 785 760 738 721 708 694 669 642 626 636 661 699 729 728 716 708 715 739 776 822 876 909 903 879 854 828 806 790 773 755 743 734 709 680 653 631 622 626 642 644 637 632 627 619 607 587 557 528 504 477 460 457 460 474 498 527 559 570 561 568 585 604 626 649 671 692 711 733 763 792 801 790 773 755 738 719 702 688 672 654 640 625 610 586 561 542 528 547 595 639 674 702 725 749 773 791 793 784 775 768 765 764 763 757 745 743 751 756 756 752 759 771 757 729 698 669 637 618 628 633 620 620 634 645 650 668 677 665 653 643 637 642 655 661 659 652 651 651 649 641 636 635 643 662 658 636 611 583 558 546 545 550 559 580 604 604 601 598 585 569 572 595 622 630 626 637 651
1029 1012 993 997 1002 1002 994 979 965 951 934 925 919 901 879 863 855 847 825 804 809 834 846 830 806 779 746 712 683 669 659 648 649 653 640 615 591 575 567 559 554 549 542 543 544 538 533 524 511 496 489 506 533 547 552 563 569 554 527 490 452 437 440 452 449 431 428 431 431 440 460 459 462 492 518 543 565 589 615 630 621 595 571 550 527 507 493 487 494 511 523 528 522 507 492 476 459 435 409 386 370 356 349 348 347 348 348 348 348 348 348 348 348 348 348 348 348 348 348 348 348 348 348 348 348 348 348 348 348 348 348 348 348 348 348 348 348 348 348 348 348 348 348 348 348 348 348 348 348 348 348 348 348 348 348 348 348 348 348 348 348 348 348 348 348 348 348 348 348 348 348 348 348 348 348 348 348 348 348 348 348 348 348 348 348 347 347 349 356 366 379 397 420 445 474 501 526 557 591 634 675 706 735 763 785 812 846 869 864 846 835 826 820 819 818 810 794 772 755 751 755 757 757 755 747 748 774 817 841 829 816 809 793 769 746 724 705 691 677 655 630 610 619 647 681 696 692 682 679 696 730 778 826 872 900 892 868 844 820 796 777 759 743 727 715 700 677 647 618 604 604 616 619 611 605 601 597 588 573 549 524 501 474 459 457 458 464 478 504 532 547 545 556 572 592 614 635 654 673 694 718 752 781 787 771 752 734 714 696 680 663 649 634 618 603 585 561 536 522 529 570 619 657 684 709 737 767 789 794 780 761 748 740 737 734 732 727 719 719 726 729 730 727 733 749 750 727 696 662 624 594 584 582 577 581 591 591 589 600 618 619 611 607 606 602 608 614 610 604 604 600 597 596 596 595 605 625 625 601 572 551 542 545 549 548 544 550 565 562 562 570 573 578 590 609 634 644 641 655 680
1060 1038 1026 1032 1039 1040 1030 1015 998 986 970 955 938 915 899 895 894 883 854 841 860 880 867 835 806 777 743 709 689 687 678 672 682 680 656 628 602 587 585 587 588 579 570 565 559 551 546 539 527 512 493 489 501 511 516 526 535 525 503 473 448 444 455 471 470 448 432 426 423 425 439 442 451 480 505 525 545 567 592 615 611 588 566 542 515 493 482 482 495 516 530 534 525 511 495 481 462 436 408 385 367 354 348 347 347 348 348 348 348 348 348 348 348 348 348 348 348 348 348 348 348 348 348 348 348 348 348 348 348 348 348 348 348 348 348 348 348 348 348 348 348 348 348 348 348 348 348 348 348 348 348 348 348 348 348 348 348 348 348 348 348 348 348 348 348 348 348 348 348 348 348 348 348 348 348 348 348 348 348 348 348 348 348 348 348 347 347 349 355 365 380 399 424 450 478 503 529 559 593 640 684 722 764 797 813 833 851 849 831 812 799 796 790 786 788 789 778 758 733 720 719 724 731 732 730 734 762 803 813 793 780 777 772 753 731 713 692 673 656 636 615 599 607 631 650 657 655 652 659 686 727 776 819 857 887 880 855 832 812 788 766 748 731 713 698 685 669 643 611 590 582 589 596 590 582 576 572 566 555 537 517 497 472 458 456 457 458 462 480 506 520 527 545 559 578 601 619 637 655 680 709 742 770 773 755 736 716 693 675 657 639 627 613 598 581 564 542 519 516 541 585 632 674 712 738 756 779 791 782 761 739 725 716 709 705 703 699 694 695 703 706 707 702 705 719 732 722 692 657 621 584 553 535 535 545 557 553 547 549 560 571 569 566 573 573 571 571 569 567 566 563 559 557 557 561 575 588 584 563 546 543 548 559 569 571 562 550 544 548 569 592 602 606 613 631 654 663 653 658 689
1085 1065 1059 1068 1077 1078 1068 1050 1037 1024 1002 979 961 947 939 938 932 914 888 893 912 901 859 821 790 763 732 709 705 705 697 700 711 694 660 631 607 599 606 620 618 606 598 589 576 567 564 555 545 532 515 497 486 485 484 486 492 485 467 452 450 462 474 480 475 460 450 445 437 427 424 426 441 467 490 509 528 548 572 597 599 580 557 534 510 487 479 484 502 524 537 537 525 511 496 480 461 435 408 383 365 352 348 347 348 348 348 348 348 348 348 348 348 348 348 348 348 348 348 348 348 348 348 348 348 348 348 348 348 348 348 348 348 348 348 348 348 348 348 348 348 348 348 348 348 348 348 348 348 348 348 348 348 348 348 348 348 348 348 348 348 348 348 348 348 348 348 348 348 348 348 348 348 348 348 348 348 348 348 348 348 348 348 348 348 347 347 349 354 364 381 403 430 457 482 507 535 564 599 647 691 733 778 814 835 837 831 821 806 787 772 768 764 759 758 764 761 743 717 695 689 696 703 709 712 721 754 801 800 774 756 745 737 726 711 695 672 653 636 619 602 587 590 602 613 619 623 629 651 689 729 767 799 835 862 865 845 822 802 779 753 730 711 698 686 673 660 643 614 581 560 562 574 569 557 548 542 537 531 518 502 486 467 457 455 455 456 458 467 488 501 517 535 548 566 587 604 621 642 667 693 721 748 758 741 716 691 667 648 633 617 603 590 576 560 540 518 508 524 559 601 655 706 747 760 764 770 770 758 737 719 707 697 688 681 678 673 667 669 678 683 683 679 678 686 701 707 685 651 614 579 543 513 509 519 529 527 522 522 526 533 535 531 537 543 539 536 536 537 535 533 531 531 534 540 550 552 547 544 549 557 568 577 586 593 589 568 550 561 592 623 636 638 643 661 683 685 666 661 688
1109 1097 1096 1104 1113 1110 1094 1075 1066 1050 1025 1006 997 990 983 978 966 939 924 937 937 900 854 817 787 761 737 729 733 725 722 733 730 702 665 633 617 618 632 649 645 632 623 609 593 587 589 580 567 554 539 519 501 490 483 472 466 459 453 456 468 479 484 482 475 470 467 464 457 444 428 419 431 455 476 495 513 533 557 581 586 570 548 527 507 485 479 489 512 533 542 535 523 510 495 477 457 433 406 380 361 350 348 347 348 348 348 348 348 348 348 348 348 348 348 348 348 348 348 348 348 348 348 348 348 348 348 348 348 348 348 348 348 348 348 348 348 348 348 348 348 348 348 348 348 348 348 348 348 348 348 348 348 348 348 348 348 348 348 348 348 348 348 348 348 348 348 348 348 348 348 348 348 348 348 348 348 348 348 348 348 348 348 348 348 347 347 348 353 364 381 404 435 464 489 515 543 574 612 657 696 734 775 808 829 820 801 793 785 766 747 737 735 732 733 738 738 724 703 678 665 669 676 686 695 713 758 802 791 762 741 723 706 692 681 668 649 633 618 603 587 570 566 572 581 591 605 626 658 693 718 739 768 804 828 841 826 804 785 765 741 716 698 687 677 663 649 634 610 575 547 539 546 544 530 516 506 501 497 491 482 469 459 455 454 454 455 457 463 478 491 512 528 542 559 575 590 607 628 651 674 700 731 741 720 689 663 641 624 608 590 577 566 553 538 516 506 518 547 583 631 695 750 770 760 748 742 738 725 710 698 689 682 672 661 654 649 644 645 653 658 660 656 654 654 657 668 665 637 602 571 539 509 503 513 517 516 516 518 521 520 520 519 520 522 521 522 524 524 522 523 524 526 529 535 539 540 545 559 572 578 587 594 602 614 612 588 575 589 618 655 675 679 684 699 711 703 678 666 687
1137 1127 1124 1126 1129 1113 1083 1061 1053 1038 1022 1015 1020 1015 1007 1002 992 977 972 961 929 888 852 823 797 774 758 763 758 746 750 756 738 704 670 641 634 642 663 685 683 668 649 627 609 610 619 613 593 576 561 543 525 512 504 488 472 467 470 477 484 488 490 488 485 484 481 477 471 460 436 418 425 445 465 484 503 523 546 569 575 559 539 519 500 482 481 495 521 542 546 536 524 509 492 474 454 429 402 376 358 349 347 347 348 348 348 348 348 348 348 348 348 348 348 348 348 348 348 348 348 348 348 348 348 348 348 348 348 348 348 348 348 348 348 348 348 348 348 348 348 348 348 348 348 348 348 348 348 348 348 348 348 348 348 348 348 348 348 348 348 348 348 348 348 348 348 348 348 348 348 348 348 348 348 348 348 348 348 348 348 348 348 348 348 347 347 348 353 364 381 404 435 463 490 517 545 579 620 659 689 722 762 795 808 796 773 760 755 741 722 709 703 703 707 713 715 702 681 662 647 647 657 673 692 723 768 799 780 750 726 706 688 671 657 644 627 613 604 591 577 560 551 558 573 593 614 640 664 677 687 706 736 769 800 814 798 777 759 748 733 710 692 679 666 652 636 617 595 569 543 526 522 521 507 488 476 470 466 464 461 457 455 454 453 454 455 457 460 469 485 505 524 541 555 568 580 594 615 639 664 694 723 723 695 667 646 624 604 583 566 558 547 535 517 506 521 549 575 610 666 743 774 763 745 725 713 707 698 687 675 667 659 650 641 635 630 624 624 628 633 636 632 625 619 611 613 623 611 584 560 532 507 505 519 520 516 519 527 533 531 529 529 527 526 530 538 544 542 535 534 538 546 549 554 559 559 566 584 595 598 606 615 624 635 630 605 599 616 643 678 708 723 727 731 727 711 688 674 689
1151 1130 1115 1105 1100 1088 1057 1025 1009 999 988 988 998 995 993 995 1000 1009 1014 993 948 902 873 846 813 788 786 791 777 770 779 774 746 710 676 657 655 671 700 722 720 701 674 647 629 637 654 648 620 603 589 573 553 535 523 509 498 495 494 495 496 495 499 501 500 498 494 492 485 466 437 418 420 435 455 474 493 513 537 560 565 549 530 510 491 480 485 506 532 552 553 540 525 507 489 471 450 425 397 373 356 348 347 348 348 348 348 348 348 348 348 348 348 348 348 348 348 348 348 348 348 348 348 348 348 348 348 348 348 348 348 348 348 348 348 348 348 348 348 348 348 348 348 348 348 348 348 348 348 348 348 348 348 348 348 348 348 348 348 348 348 348 348 348 348 348 348 348 348 348 348 348 348 348 348 348 348 348 348 348 348 348 348 348 348 347 347 348 354 365 381 402 430 459 486 512 538 572 612 648 678 716 764 788 778 764 745 726 724 719 702 687 678 674 676 683 690 678 656 641 628 626 648 679 708 740 772 786 769 737 709 689 671 656 641 625 607 594 585 575 563 550 544 563 592 616 629 637 645 647 652 677 707 742 776 789 773 749 730 722 716 702 686 671 656 640 622 603 583 560 540 520 506 500 483 463 451 447 447 450 452 453 453 453 454 454 455 456 458 464 481 502 522 537 550 561 572 588 613 641 670 698 713 699 672 653 636 614 590 566 551 542 534 520 504 513 546 577 605 638 696 770 776 750 730 710 695 684 676 668 657 646 636 628 621 618 612 605 602 602 604 606 605 596 586 573 568 574 575 560 537 515 507 519 535 534 530 535 545 548 548 548 549 549 551 559 569 575 571 562 556 558 568 575 582 588 590 596 610 619 626 635 642 649 658 650 627 616 629 663 700 736 757 757 749 734 716 697 684 692
1131 1102 1078 1062 1054 1055 1044 1017 985 964 949 950 962 960 958 964 977 998 1023 1024 985 935 899 862 829 817 823 814 797 802 808 789 756 720 687 675 680 703 732 752 745 722 700 672 652 664 689 680 651 631 616 600 576 554 540 531 530 528 521 516 510 506 514 522 521 514 509 508 496 473 446 422 414 420 441 463 482 502 527 549 554 540 519 498 482 480 494 519 545 561 556 540 523 504 486 469 446 421 394 371 355 348 347 348 348 348 348 348 348 348 348 348 348 348 348 348 348 348 348 348 348 348 348 348 348 348 348 348 348 348 348 348 348 348 348 348 348 348 348 348 348 348 348 348 348 348 348 348 348 348 348 348 348 348 348 348 348 348 348 348 348 348 348 348 348 348 348 348 348 348 348 348 348 348 348 348 348 348 348 348 348 348 348 348 348 347 347 349 354 365 380 401 426 453 480 506 532 566 607 647 686 732 771 773 749 731 715 697 695 699 687 671 660 651 647 653 662 652 632 617 606 614 650 692 720 738 749 757 751 724 696 672 653 639 624 608 593 581 570 559 547 538 546 579 610 615 612 612 614 613 620 649 684 718 746 761 749 725 707 693 688 684 673 660 645 629 610 591 572 550 530 510 492 479 461 445 440 439 444 450 453 454 454 454 455 456 456 456 457 462 475 496 515 527 540 553 568 591 621 654 684 700 692 672 652 637 620 600 575 552 535 527 521 504 494 525 567 600 632 666 715 776 779 752 726 701 683 669 656 646 639 630 617 607 602 598 590 584 582 579 575 574 575 568 553 537 528 530 531 524 513 508 522 543 553 552 556 559 561 560 560 562 564 567 572 579 589 595 590 582 579 577 584 595 603 611 620 629 639 646 655 666 674 681 687 676 655 638 642 676 717 758 780 774 760 742 722 707 696 696
1109 1078 1050 1031 1018 1015 1015 1013 991 953 920 914 922 921 920 927 943 972 1008 1021 1003 970 926 883 861 863 859 837 832 842 831 795 757 723 699 695 706 730 759 774 763 746 722 690 674 694 720 711 685 661 637 613 590 573 560 556 560 557 548 538 524 520 532 542 539 531 528 525 505 481 459 432 410 407 427 453 472 490 510 530 540 530 508 488 479 485 505 532 554 565 556 538 522 505 486 467 442 416 391 369 353 348 347 348 348 348 348 348 348 348 348 348 348 348 348 348 348 348 348 348 348 348 348 348 348 348 348 348 348 348 348 348 348 348 348 348 348 348 348 348 348 348 348 348 348 348 348 348 348 348 348 348 348 348 348 348 348 348 348 348 348 348 348 348 348 348 348 348 348 348 348 348 348 348 348 348 348 348 348 348 348 348 348 348 348 347 347 348 354 363 379 401 423 446 474 503 532 566 608 654 699 749 771 754 726 704 685 671 666 672 666 652 642 631 622 624 631 626 609 594 594 620 659 691 707 712 714 725 730 712 688 663 644 627 610 594 581 571 562 549 536 532 557 591 602 590 581 581 581 580 598 629 658 687 716 729 724 707 687 669 657 653 650 643 629 614 598 583 559 534 515 495 478 463 446 439 438 441 451 459 461 460 458 457 459 459 457 457 457 460 469 486 503 516 530 546 568 595 629 665 692 693 672 651 631 612 595 578 558 537 519 507 499 488 495 542 594 630 661 698 730 762 767 751 725 697 676 658 641 626 616 610 597 582 574 569 565 564 562 557 549 542 543 540 522 508 503 503 504 507 515 525 537 555 565 562 567 573 573 574 575 575 576 579 585 592 601 606 601 597 597 597 601 611 620 633 648 659 664 670 685 701 712 717 718 705 684 666 658 682 724 767 794 793 780 759 737 723 713 707
1096 1065 1039 1017 998 987 987 995 993 965 918 892 884 884 886 895 913 948 987 994 986 979 955 921 912 913 893 875 877 865 836 799 762 735 719 720 734 754 780 796 791 773 740 706 703 727 742 730 706 681 648 620 603 590 582 584 589 582 568 552 537 535 550 559 555 550 549 543 518 491 471 442 411 405 423 445 462 477 492 510 523 517 498 482 479 493 517 541 559 564 552 536 525 509 491 471 444 414 387 365 351 348 347 348 348 348 348 348 348 348 348 348 348 348 348 348 348 348 348 348 348 348 348 348 348 348 348 348 348 348 348 348 348 348 348 348 348 348 348 348 348 348 348 348 348 348 348 348 348 348 348 348 348 348 348 348 348 348 348 348 348 348 348 348 348 348 348 348 348 348 348 348 348 348 348 348 348 348 348 348 348 348 348 348 348 347 347 348 353 362 378 399 418 439 468 499 531 566 609 656 701 745 758 735 707 682 661 645 634 635 638 631 621 608 599 599 603 600 584 574 591 629 662 679 683 683 683 695 710 705 685 659 637 618 601 585 570 559 551 540 524 526 563 590 583 565 553 551 550 554 581 605 630 662 690 693 693 685 666 649 633 623 620 617 607 596 587 572 545 520 499 481 463 448 440 439 444 456 469 476 477 474 470 471 475 467 459 457 457 458 462 475 495 510 524 542 569 599 633 668 692 685 660 636 612 588 567 551 536 520 503 488 484 491 518 571 623 660 686 707 715 720 724 726 719 696 672 650 630 614 599 587 575 557 544 537 539 542 537 530 521 513 513 512 503 498 500 505 512 523 538 547 546 555 572 571 572 584 590 592 593 594 595 597 600 605 610 615 614 612 616 618 619 627 640 655 670 683 692 697 711 730 744 752 746 725 706 692 679 687 723 773 814 819 801 779 759 746 735 726
1084 1065 1038 1011 988 971 960 962 965 955 933 902 870 852 855 870 893 931 966 958 946 947 946 940 952 949 926 919 906 875 850 819 785 761 749 754 771 787 803 821 819 793 756 730 743 760 754 729 705 681 652 628 612 602 605 617 617 604 585 564 550 551 569 576 572 570 569 555 527 503 485 458 422 406 416 432 449 464 479 496 508 504 489 479 483 503 527 548 562 558 545 535 526 512 495 476 447 412 383 361 349 347 347 348 348 348 348 348 348 348 348 348 348 348 348 348 348 348 348 348 348 348 348 348 348 348 348 348 348 348 348 348 348 348 348 348 348 348 348 348 348 348 348 348 348 348 348 348 348 348 348 348 348 348 348 348 348 348 348 348 348 348 348 348 348 348 348 348 348 348 348 348 348 348 348 348 348 348 348 348 348 348 348 348 348 347 347 348 353 362 378 395 413 434 463 496 530 569 609 652 695 729 739 720 690 664 642 624 608 600 603 604 595 586 580 574 574 572 562 563 587 624 650 659 656 652 651 664 689 696 677 652 629 610 592 575 559 544 535 526 510 518 556 578 565 545 531 525 522 531 556 576 603 638 659 657 657 660 647 629 614 604 596 590 582 574 569 559 537 511 489 468 449 440 439 445 464 485 500 504 503 498 494 497 497 479 462 459 458 458 458 465 480 495 512 535 566 599 635 669 685 670 643 616 589 564 539 519 507 496 488 488 503 525 557 604 641 661 675 673 668 671 670 682 701 689 664 639 618 601 583 568 552 532 518 511 512 514 511 506 502 499 499 499 498 498 505 518 528 540 551 558 554 556 574 582 579 592 607 612 612 613 616 619 621 623 624 629 630 629 636 643 643 646 659 675 692 712 728 731 736 751 771 781 768 740 720 708 698 699 732 788 835 837 815 795 779 768 760 753
1057 1063 1047 1013 983 957 936 926 923 918 926 916 879 843 830 847 875 914 946 930 908 907 911 922 945 950 947 947 932 909 881 842 808 786 779 794 815 832 842 848 837 802 770 765 786 784 758 730 706 685 662 638 620 617 632 647 640 621 600 578 566 574 593 596 588 582 571 548 521 504 491 470 438 411 404 413 435 455 472 490 499 493 482 477 488 511 533 554 560 549 541 540 530 516 502 480 447 410 380 358 348 347 348 348 348 348 348 348 348 348 348 348 348 348 348 348 348 348 348 348 348 348 348 348 348 348 348 348 348 348 348 348 348 348 348 348 348 348 348 348 348 348 348 348 348 348 348 348 348 348 348 348 348 348 348 348 348 348 348 348 348 348 348 348 348 348 348 348 348 348 348 348 348 348 348 348 348 348 348 348 348 348 348 348 348 347 347 349 354 363 378 394 411 432 459 491 524 563 602 640 676 706 720 706 675 649 630 613 591 573 573 577 571 566 561 550 547 546 547 560 586 616 636 638 628 622 619 628 657 676 665 645 623 603 582 564 548 531 516 505 495 511 551 573 555 531 515 506 499 506 527 549 577 606 623 625 624 631 628 610 593 587 578 567 557 547 544 540 523 499 477 456 441 438 443 460 485 510 528 533 530 521 516 513 503 485 469 468 461 458 458 459 464 476 496 522 552 591 637 668 669 646 617 591 563 538 514 495 485 483 494 515 542 567 593 623 629 623 623 621 618 622 621 632 664 669 647 621 602 584 566 550 531 512 500 496 496 497 497 497 496 496 496 497 497 501 515 529 538 550 565 573 562 558 577 592 588 596 621 631 632 634 639 643 645 643 644 648 647 644 652 663 669 671 677 693 718 745 763 767 767 777 796 802 785 760 736 721 711 712 744 800 844 846 829 812 798 786 782 783
1026 1040 1042 1021 992 962 931 905 889 882 895 899 871 835 813 824 855 893 924 914 881 871 875 889 913 923 933 953 965 951 910 863 837 825 820 833 858 881 889 878 850 812 790 800 812 801 776 753 726 706 681 650 636 642 661 674 660 636 616 596 587 599 611 605 588 571 552 528 504 490 481 467 443 416 401 406 428 451 469 484 490 483 475 477 493 515 535 553 552 541 540 544 534 520 507 481 443 407 376 355 348 347 348 348 348 348 348 348 348 348 348 348 348 348 348 348 348 348 348 348 348 348 348 348 348 348 348 348 348 348 348 348 348 348 348 348 348 348 348 348 348 348 348 348 348 348 348 348 348 348 348 348 348 348 348 348 348 348 348 348 348 348 348 348 348 348 348 348 348 348 348 348 348 348 348 348 348 348 348 348 348 348 348 348 348 347 347 349 355 364 377 393 410 429 453 483 515 548 585 620 654 681 698 689 661 636 621 603 575 554 547 549 547 546 539 529 528 534 547 568 595 613 618 613 601 593 589 594 618 641 646 636 615 595 574 554 535 516 497 483 479 505 548 567 547 518 496 485 476 481 504 524 548 572 586 588 590 596 604 591 575 567 557 544 532 515 508 511 500 482 463 447 439 439 452 478 502 527 549 555 547 537 525 507 492 485 486 488 471 459 458 458 458 463 480 506 533 573 620 651 655 632 602 578 550 524 501 483 481 494 522 553 579 601 613 614 596 580 573 569 566 569 575 591 628 643 622 596 578 562 547 531 513 496 490 490 490 492 494 495 496 497 497 499 504 515 532 543 552 568 591 597 579 566 584 607 607 604 626 649 656 664 670 672 671 665 666 667 663 660 663 676 689 697 701 714 741 774 797 801 800 808 819 818 802 782 761 740 726 721 745 791 823 834 837 834 821 807 801 805
1001 1009 1017 1018 1006 983 949 909 874 855 857 864 853 827 804 803 835 875 897 895 866 841 840 854 876 885 900 934 957 951 919 882 873 876 864 868 892 919 930 905 866 833 826 838 841 828 806 781 755 731 698 667 663 673 691 698 681 656 636 618 611 615 609 588 565 545 527 509 492 481 473 459 434 410 400 409 429 449 465 477 479 474 469 477 499 519 536 543 538 531 537 543 534 520 504 474 436 402 371 352 348 347 348 348 348 348 348 348 348 348 348 348 348 348 348 348 348 348 348 348 348 348 348 348 348 348 348 348 348 348 348 348 348 348 348 348 348 348 348 348 348 348 348 348 348 348 348 348 348 348 348 348 348 348 348 348 348 348 348 348 348 348 348 348 348 348 348 348 348 348 348 348 348 348 348 348 348 348 348 348 348 348 348 348 348 347 347 349 356 365 378 393 409 426 447 476 506 535 570 603 635 662 678 671 649 626 610 590 563 540 524 520 522 523 515 515 528 542 561 588 606 601 594 588 578 568 561 565 582 601 614 613 600 587 569 545 524 504 485 467 469 499 538 545 525 495 472 463 455 460 481 498 516 537 550 552 555 558 569 568 558 549 537 521 502 479 469 471 468 458 447 440 438 441 464 497 524 549 567 564 548 533 515 497 489 497 508 509 488 467 459 458 458 459 466 484 507 544 583 612 635 625 600 574 545 518 495 479 484 504 535 562 590 609 610 593 569 551 540 532 527 527 536 563 603 617 598 575 557 541 528 512 496 485 483 484 486 490 494 499 504 506 507 515 529 544 559 565 575 597 623 627 605 582 594 626 632 619 625 648 669 690 701 700 693 686 688 686 681 678 676 688 707 725 737 745 761 793 820 830 833 838 837 830 816 799 785 766 747 732 738 768 788 803 822 841 840 828 819 821
977 980 988 1000 1005 994 965 921 878 845 827 831 837 818 790 784 818 857 866 865 853 823 806 817 839 848 863 900 917 910 889 869 885 905 895 899 921 949 959 924 884 864 870 878 872 854 830 806 782 749 712 695 700 710 725 724 704 680 661 642 625 612 591 566 545 528 516 505 496 492 486 466 434 409 400 407 422 439 455 466 470 467 463 476 500 519 531 529 522 518 528 536 530 518 496 462 427 394 365 350 347 347 348 348 348 348 348 348 348 348 348 348 348 348 348 348 348 348 348 348 348 348 348 348 348 348 348 348 348 348 348 348 348 348 348 348 348 348 348 348 348 348 348 348 348 348 348 348 348 348 348 348 348 348 348 348 348 348 348 348 348 348 348 348 348 348 348 348 348 348 348 348 348 348 348 348 348 348 348 348 348 348 348 348 348 347 347 350 357 367 379 393 409 424 441 466 494 524 558 587 616 644 657 651 634 616 600 577 551 528 508 498 499 501 506 525 553 571 587 603 601 584 571 561 554 547 540 538 549 565 580 583 574 573 565 538 513 491 470 453 461 494 517 510 490 466 446 437 433 438 452 470 485 501 512 516 519 519 531 542 539 529 517 499 478 454 443 442 443 441 439 438 437 443 473 513 542 568 576 562 543 524 510 505 509 518 527 528 509 485 467 460 458 458 459 466 479 507 540 560 590 604 592 565 536 510 485 473 476 488 507 525 550 576 584 567 546 530 518 508 499 496 504 536 583 595 577 557 538 522 507 491 483 480 480 481 485 491 499 511 523 530 535 544 560 577 585 590 604 630 650 644 616 589 599 639 652 631 623 639 665 692 715 723 719 712 709 702 699 698 692 700 723 750 770 777 782 802 832 853 860 856 850 842 829 816 803 788 769 752 743 752 768 781 798 824 842 845 841 841
951 947 955 971 985 987 965 927 892 856 820 806 809 791 765 766 799 827 827 826 825 805 783 790 814 822 836 869 880 867 850 836 856 884 891 907 937 973 980 946 912 902 911 914 899 875 851 828 799 761 733 729 740 750 756 744 722 699 677 652 621 597 572 551 536 528 525 521 519 522 516 488 453 425 407 402 406 417 432 447 458 460 460 473 493 510 516 511 504 506 520 528 524 508 479 447 416 383 359 349 347 348 348 348 348 348 348 348 348 348 348 348 348 348 348 348 348 348 348 348 348 348 348 348 348 348 348 348 348 348 348 348 348 348 348 348 348 348 348 348 348 348 348 348 348 348 348 348 348 348 348 348 348 348 348 348 348 348 348 348 348 348 348 348 348 348 348 348 348 348 348 348 348 348 348 348 348 348 348 348 348 348 348 348 347 347 348 352 359 368 381 394 410 424 435 453 475 506 539 567 594 618 629 625 613 601 584 560 537 515 495 483 482 495 519 552 583 594 596 595 584 568 553 537 529 524 519 514 518 535 553 555 546 552 553 529 502 479 456 438 451 484 491 478 460 438 419 410 410 413 421 436 450 460 467 474 482 485 496 508 508 502 492 477 459 443 437 437 438 438 437 437 439 451 487 526 555 578 576 558 542 524 517 525 536 545 553 552 529 505 486 471 461 458 458 459 462 474 497 512 527 552 562 547 523 497 473 464 470 475 479 486 499 522 537 530 517 508 497 487 484 484 485 505 546 559 546 528 511 498 487 482 481 481 482 485 489 496 512 531 545 557 564 572 590 608 613 619 636 658 663 643 612 591 605 645 667 649 630 635 655 682 711 734 747 744 732 720 723 721 713 716 743 775 801 813 816 826 847 871 879 872 865 861 851 836 820 805 790 776 762 757 773 788 795 811 840 859 863 861
933 922 925 940 952 957 943 911 889 859 822 795 779 759 745 748 768 788 790 789 791 779 764 778 795 798 817 842 851 836 818 808 818 842 859 884 926 970 991 974 952 945 948 943 920 895 872 849 817 785 765 766 777 777 764 742 720 697 668 636 607 585 565 552 546 545 546 545 550 552 535 502 473 449 425 407 401 402 409 424 442 449 456 470 484 495 498 495 492 500 517 522 513 492 462 432 402 373 353 348 347 348 348 348 348 348 348 348 348 348 348 348 348 348 348 348 348 348 348 348 348 348 348 348 348 348 348 348 348 348 348 348 348 348 348 348 348 348 348 348 348 348 348 348 348 348 348 348 348 348 348 348 348 348 348 348 348 348 348 348 348 348 348 348 348 348 348 348 348 348 348 348 348 348 348 348 348 348 348 348 348 348 348 348 347 347 348 354 359 368 381 395 410 423 432 441 457 483 515 542 568 588 596 594 586 579 566 545 524 505 484 470 478 508 544 574 589 586 579 573 563 549 530 512 503 500 496 490 492 514 531 523 517 529 532 516 493 466 441 425 439 459 450 440 430 413 402 400 402 403 404 407 413 419 425 433 443 451 458 463 464 463 460 453 444 438 437 439 441 442 440 440 450 473 505 537 568 590 582 561 543 526 526 544 562 575 581 575 550 525 507 490 472 460 458 458 458 460 469 481 490 506 521 519 501 477 465 469 483 486 480 478 479 485 493 493 488 485 481 482 496 505 490 487 506 517 507 495 487 485 490 497 496 492 495 499 502 513 537 559 571 582 587 596 617 636 642 652 670 678 660 630 603 598 618 650 677 671 647 638 647 671 703 737 764 770 756 744 750 748 738 736 758 791 824 848 856 861 871 891 901 893 885 880 873 859 842 826 814 799 785 779 796 818 815 816 849 881 889 884
925 907 901 909 915 917 906 873 855 831 803 782 766 757 750 745 745 750 751 752 754 748 742 761 770 772 794 808 818 809 789 779 786 804 826 854 896 946 982 986 988 994 987 969 942 917 896 876 850 816 797 800 802 783 754 727 705 681 653 626 605 590 575 568 568 572 574 575 580 568 541 510 485 466 443 422 408 400 401 414 433 439 452 466 471 475 479 482 484 494 511 514 500 476 448 418 389 363 350 348 347 348 348 348 348 348 348 348 348 348 348 348 348 348 348 348 348 348 348 348 348 348 348 348 348 348 348 348 348 348 348 348 348 348 348 348 348 348 348 348 348 348 348 348 348 348 348 348 348 348 348 348 348 348 348 348 348 348 348 348 348 348 348 348 348 348 348 348 348 348 348 348 348 348 348 348 348 348 348 348 348 348 348 348 347 347 348 351 356 365 377 392 408 421 427 431 441 461 488 512 533 551 559 560 559 555 547 531 509 489 469 459 476 513 553 572 568 557 547 539 533 523 506 491 481 477 474 469 474 496 505 491 486 497 500 492 471 443 421 413 421 420 409 406 404 400 403 412 423 426 421 415 409 407 413 421 424 427 431 436 441 442 440 438 437 438 445 452 454 459 455 456 474 501 525 552 587 607 594 567 545 528 536 566 588 600 602 593 568 544 525 507 487 467 459 458 458 458 460 464 469 476 487 489 474 465 475 489 504 509 502 494 487 481 479 478 480 486 491 502 526 531 504 484 483 487 484 485 494 510 525 527 520 514 517 519 524 539 562 584 599 606 610 624 645 657 669 689 699 686 654 624 606 614 635 660 687 692 670 653 649 662 692 728 760 778 778 773 778 778 768 758 765 792 830 865 885 894 902 917 922 914 906 900 894 883 863 843 829 814 805 807 825 848 840 829 860 899 916 913
922 903 885 879 879 879 870 835 815 795 779 774 775 780 776 766 761 751 737 728 724 717 717 731 741 746 764 775 786 782 761 750 757 773 797 826 861 910 952 964 987 1017 1018 997 970 944 927 908 878 845 831 831 816 784 750 719 695 673 650 630 615 605 595 593 598 604 606 608 604 580 552 524 498 476 456 438 422 406 402 414 423 425 446 458 455 457 465 472 476 485 500 504 490 463 435 405 377 356 348 347 348 348 348 348 348 348 348 348 348 348 348 348 348 348 348 348 348 348 348 348 348 348 348 348 348 348 348 348 348 348 348 348 348 348 348 348 348 348 348 348 348 348 348 348 348 348 348 348 348 348 348 348 348 348 348 348 348 348 348 348 348 348 348 348 348 348 348 348 348 348 348 348 348 348 348 348 348 348 348 348 348 348 348 348 348 347 347 349 352 359 370 385 399 412 419 420 426 439 460 482 499 512 520 525 532 532 523 509 488 473 456 449 474 511 547 555 543 527 514 504 498 492 482 471 462 454 449 446 450 465 469 457 455 459 459 456 439 417 402 399 401 399 400 402 404 410 429 444 456 463 455 445 439 438 443 444 441 444 451 458 463 460 447 439 441 453 474 476 468 480 485 489 502 519 542 572 607 622 603 575 550 534 544 580 607 617 619 608 582 559 541 520 499 476 462 459 458 458 458 459 460 461 464 464 461 473 497 511 520 528 530 525 514 498 487 488 498 518 530 540 554 543 514 490 484 488 496 513 536 555 558 549 541 538 538 541 550 565 585 605 623 630 637 654 667 679 702 721 711 681 650 623 615 631 651 673 696 707 694 675 664 661 680 711 744 774 795 803 808 806 796 785 782 795 825 860 893 918 935 943 940 935 929 921 911 899 880 860 843 830 832 839 856 871 857 841 859 897 927 939
927 906 877 857 849 843 832 808 795 789 789 798 806 811 806 799 797 784 763 740 721 706 703 706 711 715 727 739 748 747 731 725 731 742 770 802 836 881 918 927 951 995 1019 1014 996 974 958 932 896 872 866 854 827 794 757 723 702 681 661 647 634 625 620 622 630 639 640 637 621 594 569 540 510 485 470 460 444 422 405 407 407 410 430 440 436 443 457 466 471 476 488 494 477 449 421 392 368 352 348 347 348 348 348 348 348 348 348 348 348 348 348 348 348 348 348 348 348 348 348 348 348 348 348 348 348 348 348 348 348 348 348 348 348 348 348 348 348 348 348 348 348 348 348 348 348 348 348 348 348 348 348 348 348 348 348 348 348 348 348 348 348 348 348 348 348 348 348 348 348 348 348 348 348 348 348 348 348 348 348 348 348 348 348 348 348 347 347 348 349 354 362 375 387 397 407 412 415 422 435 454 470 481 487 492 497 498 492 480 468 459 442 442 472 508 535 530 517 499 480 469 460 453 451 448 440 429 422 420 422 430 433 426 422 418 417 419 411 397 392 397 403 406 413 421 432 447 472 486 497 500 490 480 478 485 487 480 477 482 492 495 493 484 465 457 471 493 509 495 481 498 515 527 534 541 559 589 624 631 607 582 558 541 549 584 615 631 634 621 597 576 556 534 512 489 471 461 459 459 459 459 459 459 459 460 467 488 515 527 533 541 548 550 543 527 515 523 539 556 569 578 572 549 522 506 508 517 534 559 582 587 577 568 562 560 558 562 572 586 605 628 646 655 666 676 687 710 734 731 704 669 640 621 625 644 664 683 705 719 714 698 681 669 678 703 734 768 802 825 837 835 825 819 816 816 832 863 897 930 956 962 960 958 951 939 925 911 893 876 859 855 864 872 889 893 874 857 857 881 916 949
927 901 866 844 835 827 819 812 811 814 821 826 835 842 840 842 837 818 792 766 741 720 710 704 697 693 697 705 713 714 707 708 712 721 750 785 820 860 881 885 910 954 982 992 995 992 981 951 919 903 892 869 839 803 768 742 725 706 691 676 663 655 652 658 668 675 669 655 633 605 576 544 517 499 494 487 468 442 415 401 396 397 409 418 422 434 451 462 466 470 480 481 459 432 405 380 360 349 347 347 348 348 348 348 348 348 348 348 348 348 348 348 348 348 348 348 348 348 348 348 348 348 348 348 348 348 348 348 348 348 348 348 348 348 348 348 348 348 348 348 348 348 348 348 348 348 348 348 348 348 348 348 348 348 348 348 348 348 348 348 348 348 348 348 348 348 348 348 348 348 348 348 348 348 348 348 348 348 348 348 348 348 348 348 348 348 347 347 348 349 355 365 374 382 396 406 409 411 416 428 444 453 460 465 469 469 465 457 453 444 428 439 475 510 521 506 492 475 454 440 427 416 414 419 416 406 396 392 392 397 402 397 391 387 387 390 389 389 396 412 431 438 441 448 466 489 514 532 543 540 526 516 517 524 520 513 514 519 524 521 515 504 493 498 520 537 535 508 495 512 535 559 570 573 583 608 638 636 610 588 565 548 557 589 623 646 651 636 613 590 566 546 527 510 489 473 466 464 466 471 471 468 468 474 490 516 539 545 548 554 562 569 567 555 547 561 575 591 607 606 583 553 533 536 548 559 577 603 622 613 599 590 582 580 582 585 592 603 620 647 669 679 688 698 716 743 746 725 694 657 631 623 636 658 678 694 714 734 738 723 702 682 683 702 731 765 799 832 859 866 859 858 857 854 857 879 910 943 971 979 979 975 966 954 938 922 905 891 877 883 898 909 920 915 895 879 869 879 913 955
922 892 859 846 844 843 840 839 842 850 855 852 860 872 884 893 877 847 818 793 765 740 725 708 698 692 685 684 687 684 679 684 691 709 741 774 806 835 846 849 872 912 937 950 960 976 976 953 937 928 909 880 848 812 785 774 759 737 722 707 692 686 685 688 694 693 679 659 635 604 573 549 534 525 521 506 481 456 430 407 391 384 388 402 419 437 453 462 463 465 473 465 438 413 390 370 354 348 347 348 348 348 348 348 348 348 348 348 348 348 348 348 348 348 348 348 348 348 348 348 348 348 348 348 348 348 348 348 348 348 348 348 348 348 348 348 348 348 348 348 348 348 348 348 348 348 348 348 348 348 348 348 348 348 348 348 348 348 348 348 348 348 348 348 348 348 348 348 348 348 348 348 348 348 348 348 348 348 348 348 348 348 348 348 348 348 347 348 347 347 349 355 362 370 383 397 402 401 404 413 424 434 440 444 450 453 449 445 443 435 420 434 478 512 507 487 473 459 441 424 406 390 384 388 392 387 380 380 381 382 383 381 380 380 383 388 395 407 421 442 464 475 476 477 493 521 546 569 581 574 561 556 561 560 549 544 551 553 551 543 534 529 535 544 566 574 552 522 514 533 553 582 600 606 615 635 652 640 617 595 572 556 569 602 636 664 665 646 622 597 573 553 541 536 516 499 490 480 480 495 497 493 496 506 525 552 567 568 568 573 580 586 586 579 576 593 609 626 636 620 588 558 547 564 586 602 617 640 653 639 626 615 603 601 605 608 613 623 639 664 690 705 712 727 750 760 744 717 687 654 634 635 648 669 692 711 731 752 760 745 722 697 689 704 731 765 796 828 862 884 892 893 893 892 891 905 933 964 990 996 993 986 976 965 950 937 925 915 902 909 930 945 948 935 915 897 884 892 922 964
913 888 866 861 864 869 869 870 877 886 884 881 888 902 922 925 903 871 843 813 774 742 721 712 716 715 704 695 683 666 656 654 662 689 724 750 779 804 812 819 843 877 899 914 921 938 936 915 919 926 913 889 860 832 815 807 791 766 745 726 709 699 693 689 692 687 672 652 628 601 580 569 560 547 532 511 486 463 440 417 393 380 382 399 422 444 459 463 459 457 458 444 421 398 379 362 350 348 347 348 348 348 348 348 348 348 348 348 348 348 348 348 348 348 348 348 348 348 348 348 348 348 348 348 348 348 348 348 348 348 348 348 348 348 348 348 348 348 348 348 348 348 348 348 348 348 348 348 348 348 348 348 348 348 348 348 348 348 348 348 348 348 348 348 348 348 348 348 348 348 348 348 348 348 348 348 348 348 348 348 348 348 348 348 348 348 348 348 347 347 348 349 353 361 370 382 390 392 396 404 414 422 428 433 439 444 442 437 435 428 412 423 461 490 489 468 452 441 430 415 395 377 373 375 378 378 379 388 397 395 392 392 394 398 404 412 422 436 454 477 495 506 509 509 520 543 568 594 612 608 594 594 595 586 573 568 571 569 567 561 556 568 586 587 597 588 558 531 527 550 574 600 624 646 658 666 664 646 624 601 578 562 579 617 653 678 671 649 627 602 578 560 557 559 546 530 519 503 495 515 525 527 534 544 561 585 594 592 593 597 604 606 607 605 605 623 645 656 648 623 593 569 558 569 603 636 658 674 681 665 649 635 623 622 627 631 639 650 662 683 713 735 746 766 776 765 738 711 684 655 641 649 662 676 698 726 750 769 779 766 744 720 701 706 730 762 790 817 849 879 907 923 928 928 928 944 969 992 1010 1012 1005 996 987 977 966 959 953 944 930 935 956 971 967 947 926 906 895 909 939 976
904 889 879 876 883 895 900 906 917 920 915 918 925 937 941 920 891 869 848 813 770 739 728 734 745 748 742 736 713 686 665 648 644 663 698 724 749 773 782 791 818 849 867 879 886 902 896 874 878 888 887 882 867 850 833 814 789 761 738 717 697 685 675 668 669 667 653 634 615 600 587 577 567 550 531 511 487 463 445 425 396 381 386 406 428 451 461 459 451 444 440 427 408 388 371 357 349 347 347 348 348 348 348 348 348 348 348 348 348 348 348 348 348 348 348 348 348 348 348 348 348 348 348 348 348 348 348 348 348 348 348 348 348 348 348 348 348 348 348 348 348 348 348 348 348 348 348 348 348 348 348 348 348 348 348 348 348 348 348 348 348 348 348 348 348 348 348 348 348 348 348 348 348 348 348 348 348 348 348 348 348 348 348 348 348 348 348 348 348 347 347 348 349 352 358 366 376 384 391 399 408 416 424 428 433 439 438 432 429 422 403 407 434 456 461 447 432 423 414 402 381 368 371 378 385 388 396 412 426 428 427 424 424 428 436 446 456 467 487 513 530 539 542 542 547 563 588 610 634 643 633 627 620 609 598 593 591 584 581 580 588 619 637 628 620 598 568 545 546 565 584 612 647 679 687 677 663 643 623 602 581 567 588 631 671 690 676 652 630 607 584 576 580 580 568 556 544 523 509 523 548 564 573 576 589 613 621 619 621 628 633 634 636 636 635 645 668 671 651 624 600 584 573 572 604 649 683 703 707 691 671 655 645 646 652 657 667 675 684 706 738 762 779 792 786 763 735 710 684 657 649 662 679 690 705 729 756 782 797 793 775 750 722 711 727 753 778 804 832 865 904 938 960 967 971 986 1004 1020 1031 1026 1016 1007 1001 994 989 986 981 970 956 960 979 990 982 959 935 914 908 929 961 997
904 901 900 896 906 922 933 945 957 958 960 964 966 961 933 895 864 841 822 795 767 745 744 759 773 783 789 783 749 710 684 661 642 642 664 693 723 748 757 766 793 819 832 844 855 872 862 837 838 847 847 848 845 838 819 793 764 738 716 693 672 657 648 642 641 638 624 604 589 584 575 561 551 538 521 503 481 460 443 424 396 382 394 415 437 456 457 450 440 431 423 412 396 379 365 353 348 347 348 348 348 348 348 348 348 348 348 348 348 348 348 348 348 348 348 348 348 348 348 348 348 348 348 348 348 348 348 348 348 348 348 348 348 348 348 348 348 348 348 348 348 348 348 348 348 348 348 348 348 348 348 348 348 348 348 348 348 348 348 348 348 348 348 348 348 348 348 348 348 348 348 348 348 348 348 348 348 348 348 348 348 348 348 348 348 348 348 348 348 348 347 347 348 348 350 355 365 377 387 395 404 415 421 423 427 433 433 426 421 415 396 388 406 420 425 421 412 404 395 381 368 368 382 392 411 424 432 445 457 461 457 453 455 466 474 480 491 507 530 554 565 572 575 573 574 586 608 627 650 673 673 662 647 638 629 620 614 607 601 603 624 663 676 663 644 615 588 570 578 594 603 622 660 691 686 668 652 634 615 596 581 578 603 643 684 698 681 655 633 612 598 601 607 603 591 577 562 542 524 526 555 588 605 608 620 643 651 648 652 659 661 663 666 667 665 669 682 676 653 630 611 598 588 582 602 646 684 708 716 710 694 679 669 671 676 680 689 695 710 738 762 783 801 803 785 759 734 712 685 659 658 672 689 709 725 739 757 784 808 816 800 772 746 728 729 743 765 792 822 859 899 938 975 1000 1012 1023 1038 1052 1053 1041 1030 1023 1021 1018 1014 1009 1001 991 981 983 1000 1008 994 971 944 922 923 951 984 1020
926 931 934 924 930 948 965 984 994 994 992 984 969 947 914 880 852 824 797 776 766 762 768 789 811 825 826 800 756 720 698 676 647 630 639 666 699 724 732 742 766 787 795 803 819 839 831 803 800 806 807 809 814 812 794 771 745 721 696 671 644 624 615 612 614 609 592 574 563 560 552 540 530 518 502 485 468 454 438 419 396 383 395 416 437 451 447 438 431 421 410 399 386 373 360 351 348 347 348 348 348 348 348 348 348 348 348 348 348 348 348 348 348 348 348 348 348 348 348 348 348 348 348 348 348 348 348 348 348 348 348 348 348 348 348 348 348 348 348 348 348 348 348 348 348 348 348 348 348 348 348 348 348 348 348 348 348 348 348 348 348 348 348 348 348 348 348 348 348 348 348 348 348 348 348 348 348 348 348 348 348 348 348 348 348 348 348 348 348 348 348 348 347 347 347 350 358 371 383 393 403 413 418 419 422 426 426 418 404 394 385 376 381 386 389 391 387 382 374 368 373 389 407 407 429 455 470 481 490 491 486 482 489 504 509 508 521 551 583 597 600 602 599 595 597 606 624 650 677 704 711 698 681 670 662 650 639 632 626 630 661 698 699 682 658 627 603 596 610 628 638 649 672 687 673 653 636 619 601 587 583 593 619 653 690 702 682 657 635 621 619 629 636 632 619 604 588 567 545 537 562 602 630 645 662 679 683 679 682 687 689 694 699 700 698 697 699 684 662 644 628 616 607 597 599 628 663 685 700 714 718 710 699 694 694 700 711 720 742 772 789 803 814 804 782 757 735 714 686 663 667 684 698 721 748 765 773 788 815 832 818 793 774 757 748 751 761 783 815 857 897 931 970 1009 1036 1052 1069 1080 1072 1056 1047 1043 1043 1041 1034 1027 1019 1010 1002 1002 1015 1021 1003 978 949 929 941 971 1005 1042
961 970 967 949 950 969 994 1017 1023 1013 994 968 943 919 898 873 846 815 791 782 788 795 806 829 852 855 831 792 755 734 716 690 656 628 622 641 673 696 704 712 735 756 760 769 790 809 801 772 763 765 766 773 787 789 773 749 725 702 677 650 619 596 586 585 589 583 568 551 538 535 528 517 505 493 480 469 458 447 433 417 398 384 395 416 435 444 438 430 424 413 401 391 379 369 357 349 348 347 348 348 348 348 348 348 348 348 348 348 348 348 348 348 348 348 348 348 348 348 348 348 348 348 348 348 348 348 348 348 348 348 348 348 348 348 348 348 348 348 348 348 348 348 348 348 348 348 348 348 348 348 348 348 348 348 348 348 348 348 348 348 348 348 348 348 348 348 348 348 348 348 348 348 348 348 348 348 348 348 348 348 348 348 348 348 348 348 348 348 348 348 348 348 348 347 347 348 354 365 380 391 403 413 416 417 419 420 421 408 383 370 366 363 363 364 365 367 367 367 373 387 404 426 433 421 442 477 502 515 522 526 520 515 524 542 546 539 551 586 622 635 633 632 624 618 618 621 634 667 703 732 745 733 716 706 698 685 671 662 658 664 695 720 710 693 669 639 619 625 648 669 683 688 686 678 658 639 621 605 593 595 603 615 638 663 696 707 686 664 647 640 646 656 662 656 644 633 619 596 570 551 566 606 641 666 691 713 717 712 713 720 723 729 736 740 736 727 720 703 684 669 652 637 626 614 603 607 628 651 674 702 730 743 734 720 718 728 738 750 774 806 822 825 820 805 784 760 737 714 687 670 679 698 713 730 757 784 798 806 825 844 842 822 804 786 775 772 771 783 811 850 887 920 957 996 1033 1063 1087 1095 1085 1072 1065 1062 1060 1057 1052 1046 1039 1030 1023 1022 1029 1030 1007 983 957 943 960 992 1026 1061
999 1004 989 964 965 988 1017 1037 1028 1003 979 952 926 905 884 861 833 808 800 810 823 833 849 869 877 856 821 789 773 765 742 708 674 639 617 615 638 663 676 683 705 729 730 740 766 780 767 742 729 725 725 741 764 767 747 718 694 676 655 628 598 576 564 560 560 555 546 535 522 513 506 497 485 474 465 459 452 444 430 413 395 383 394 417 436 439 431 424 417 409 398 386 375 367 356 349 347 347 348 348 348 348 348 348 348 348 348 348 348 348 348 348 348 348 348 348 348 348 348 348 348 348 348 348 348 348 348 348 348 348 348 348 348 348 348 348 348 348 348 348 348 348 348 348 348 348 348 348 348 348 348 348 348 348 348 348 348 348 348 348 348 348 348 348 348 348 348 348 348 348 348 348 348 348 348 348 348 348 348 348 348 348 348 348 348 348 348 348 348 348 348 348 348 348 347 348 353 366 380 390 402 414 417 419 418 416 415 398 370 360 358 358 360 364 367 367 371 382 404 427 442 457 453 434 451 489 522 543 559 566 554 549 563 581 585 574 581 615 655 673 669 661 651 644 644 645 652 680 721 756 771 756 740 735 728 715 701 698 699 705 730 739 723 705 682 655 645 666 694 714 724 714 692 668 648 630 611 599 603 623 638 640 654 678 707 717 701 684 669 666 674 683 684 678 672 665 647 622 595 569 570 603 641 673 706 737 747 746 750 758 760 766 771 775 767 753 741 723 705 692 677 660 646 631 613 603 609 631 659 688 720 749 758 748 747 756 766 783 814 843 849 841 828 812 791 766 740 714 690 680 693 715 730 745 766 791 813 829 846 862 867 849 825 807 796 793 790 792 808 835 870 906 942 982 1020 1052 1082 1096 1091 1086 1081 1078 1076 1073 1068 1065 1061 1052 1045 1042 1045 1042 1019 993 970 959 977 1008 1042 1077
1030 1028 1002 976 983 1009 1038 1046 1020 990 966 939 916 893 865 840 823 817 823 840 858 877 898 905 884 852 827 810 803 794 764 727 691 657 628 608 609 627 642 652 676 699 702 717 744 755 743 721 702 690 694 720 745 746 723 693 667 645 629 607 578 558 549 544 536 531 528 524 514 497 487 480 472 462 456 453 449 443 430 407 387 384 397 415 433 434 424 419 418 414 405 392 380 370 357 349 347 348 348 348 348 348 348 348 348 348 348 348 348 348 348 348 348 348 348 348 348 348 348 348 348 348 348 348 348 348 348 348 348 348 348 348 348 348 348 348 348 348 348 348 348 348 348 348 348 348 348 348 348 348 348 348 348 348 348 348 348 348 348 348 348 348 348 348 348 348 348 348 348 348 348 348 348 348 348 348 348 348 348 348 348 348 348 348 348 348 348 348 348 348 348 348 348 348 347 347 351 365 379 388 398 409 416 419 417 410 403 388 367 359 358 360 369 383 393 391 401 417 438 463 481 492 482 457 456 488 533 571 597 603 592 591 607 619 618 611 619 648 689 708 701 688 678 671 670 670 676 700 742 779 792 778 764 759 755 743 734 741 750 755 764 755 736 715 688 667 674 708 739 748 736 713 685 661 643 623 608 605 619 651 673 671 673 694 724 735 725 708 695 696 705 712 710 704 702 690 666 641 618 592 581 608 648 679 714 754 774 779 788 795 793 798 804 801 788 775 762 744 725 709 694 679 668 649 629 613 609 626 656 685 713 746 773 777 775 783 797 824 854 867 862 851 836 821 801 774 746 716 693 693 711 730 745 762 783 802 823 847 869 882 884 864 840 824 814 813 812 809 810 824 851 886 922 958 991 1021 1057 1077 1088 1097 1098 1095 1095 1094 1088 1083 1078 1071 1065 1063 1060 1051 1034 1009 987 975 986 1018 1053 1091
1053 1041 1013 992 1002 1029 1055 1050 1016 985 955 925 902 881 858 845 845 847 852 867 886 911 930 920 891 869 854 840 826 797 764 734 702 672 646 622 601 598 608 625 648 669 680 701 726 733 722 703 682 666 676 704 728 727 705 679 651 622 601 581 556 541 535 534 525 516 512 508 502 488 474 464 457 449 446 447 446 442 431 411 390 384 391 406 425 429 423 422 426 425 415 400 386 372 357 349 347 348 348 348 348 348 348 348 348 348 348 348 348 348 348 348 348 348 348 348 348 348 348 348 348 348 348 348 348 348 348 348 348 348 348 348 348 348 348 348 348 348 348 348 348 348 348 348 348 348 348 348 348 348 348 348 348 348 348 348 348 348 348 348 348 348 348 348 348 348 348 348 348 348 348 348 348 348 348 348 348 348 348 348 348 348 348 348 348 348 348 348 348 348 348 348 348 348 347 347 348 355 366 375 383 393 403 410 409 399 388 375 364 359 362 373 390 411 423 416 425 448 465 490 517 531 516 490 473 486 527 573 608 627 627 629 649 660 658 654 663 688 721 735 723 709 704 700 695 694 705 729 766 802 822 814 797 788 784 780 780 791 799 795 784 766 746 723 697 682 701 739 766 760 734 706 681 659 639 622 620 625 643 678 702 703 701 720 749 760 750 734 724 727 738 746 746 739 728 710 686 661 640 619 598 607 644 681 719 765 796 815 828 835 829 830 837 828 809 795 780 761 740 720 704 692 684 668 647 625 614 625 659 692 721 749 779 800 815 823 832 860 884 882 872 859 843 827 807 782 754 721 699 704 723 741 759 776 798 822 843 864 886 901 895 873 853 840 833 832 828 824 821 823 839 868 900 928 954 983 1020 1049 1077 1105 1116 1117 1119 1117 1112 1104 1097 1091 1086 1081 1072 1059 1043 1023 1003 990 994 1026 1064 1102
1076 1052 1026 1012 1018 1046 1067 1051 1014 984 952 920 902 894 885 884 883 875 879 897 919 942 951 934 912 894 871 850 824 788 758 733 707 687 675 654 620 597 587 596 619 643 664 687 711 714 700 684 664 650 662 692 714 708 686 663 642 620 597 569 544 529 522 523 517 505 497 491 485 474 456 441 433 428 427 434 437 432 426 417 398 382 381 393 415 426 427 430 436 433 418 401 385 370 355 348 347 348 348 348 348 348 348 348 348 348 348 348 348 348 348 348 348 348 348 348 348 348 348 348 348 348 348 348 348 348 348 348 348 348 348 348 348 348 348 348 348 348 348 348 348 348 348 348 348 348 348 348 348 348 348 348 348 348 348 348 348 348 348 348 348 348 348 348 348 348 348 348 348 348 348 348 348 348 348 348 348 348 348 348 348 348 348 348 348 348 348 348 348 348 348 348 348 348 348 347 347 349 353 358 363 369 378 387 389 383 374 364 360 366 379 400 426 450 456 440 442 471 495 522 549 560 539 515 497 493 510 546 590 630 650 660 683 702 702 701 708 730 752 754 742 731 726 723 719 719 730 755 790 833 865 863 845 832 829 832 831 831 825 810 795 778 755 729 706 698 721 756 769 754 729 704 681 658 639 635 640 651 672 701 724 730 731 753 783 791 778 763 757 760 776 787 785 769 749 727 706 680 655 634 613 608 637 684 727 769 807 843 864 873 869 865 864 848 829 811 791 768 747 728 714 703 694 680 658 635 622 629 658 690 722 750 778 808 840 858 865 883 899 891 879 867 850 831 810 785 759 728 705 709 731 753 772 790 812 839 864 883 904 914 901 881 865 857 851 845 839 837 834 831 837 856 881 906 933 967 1006 1039 1076 1113 1136 1141 1140 1137 1131 1124 1118 1112 1106 1097 1084 1069 1053 1037 1019 1004 1004 1031 1069 1102
1095 1065 1046 1034 1034 1060 1073 1051 1015 986 957 932 932 929 924 930 920 900 908 936 965 982 979 955 922 894 867 842 817 792 766 738 718 714 719 695 653 617 588 573 587 618 648 676 698 698 679 661 643 631 647 678 699 691 666 644 625 610 593 571 546 527 513 509 505 495 485 476 469 451 426 411 409 410 406 408 410 404 402 402 391 382 381 384 400 420 432 442 447 436 416 397 383 368 353 348 347 348 348 348 348 348 348 348 348 348 348 348 348 348 348 348 348 348 348 348 348 348 348 348 348 348 348 348 348 348 348 348 348 348 348 348 348 348 348 348 348 348 348 348 348 348 348 348 348 348 348 348 348 348 348 348 348 348 348 348 348 348 348 348 348 348 348 348 348 348 348 348 348 348 348 348 348 348 348 348 348 348 348 348 348 348 348 348 348 348 348 348 348 348 348 348 348 348 348 347 347 348 349 351 354 357 361 367 370 369 365 360 365 383 403 427 460 491 493 470 469 498 529 558 580 580 559 537 522 513 513 530 566 606 641 672 706 735 744 747 753 771 780 772 761 751 745 744 743 743 755 785 821 865 903 911 897 885 881 875 862 846 829 814 801 786 762 734 716 721 745 769 765 746 725 704 683 658 648 654 659 668 691 720 744 757 763 784 812 820 811 800 793 793 804 812 801 781 759 739 719 694 666 642 623 620 650 696 734 768 804 845 876 898 902 896 885 866 847 828 804 779 759 745 735 723 706 684 660 640 633 639 656 682 716 749 777 807 839 867 886 904 913 903 891 881 864 842 816 792 766 739 716 716 739 763 783 801 821 847 874 897 917 920 904 888 878 874 869 859 857 858 855 848 846 859 885 913 941 975 1013 1048 1087 1126 1157 1165 1162 1157 1152 1145 1139 1131 1121 1108 1094 1080 1065 1051 1036 1022 1018 1034 1066 1098
1108 1082 1070 1056 1052 1070 1079 1058 1026 996 971 963 972 967 966 975 959 935 941 971 1000 1013 993 951 915 894 876 860 843 817 785 760 751 749 749 716 670 628 594 568 571 598 627 656 676 676 656 636 618 610 632 665 687 677 650 625 605 592 579 563 542 525 508 495 491 485 476 466 454 431 407 403 415 424 419 408 399 390 389 388 383 387 390 382 383 403 432 450 451 434 410 391 377 362 350 348 347 348 348 348 348 348 348 348 348 348 348 348 348 348 348 348 348 348 348 348 348 348 348 348 348 348 348 348 348 348 348 348 348 348 348 348 348 348 348 348 348 348 348 348 348 348 348 348 348 348 348 348 348 348 348 348 348 348 348 348 348 348 348 348 348 348 348 348 348 348 348 348 348 348 348 348 348 348 348 348 348 348 348 348 348 348 348 348 348 348 348 348 348 348 348 348 348 348 348 348 347 347 348 348 350 352 354 356 357 358 357 362 382 406 426 454 494 524 518 497 504 533 563 588 603 594 573 557 546 539 533 531 545 579 620 668 710 753 783 794 800 812 805 790 779 771 770 772 771 771 783 810 846 888 931 949 936 922 910 891 871 849 829 814 801 787 765 738 730 749 776 788 769 744 722 704 683 663 666 678 687 694 710 734 760 781 794 815 843 852 846 837 830 824 823 819 803 784 766 748 727 703 678 654 635 635 669 721 753 773 801 836 872 904 924 924 909 889 871 850 825 801 782 768 757 737 709 681 658 644 643 651 660 679 710 741 770 802 829 858 890 918 930 924 914 904 887 862 834 808 783 755 729 725 743 766 788 805 822 844 870 897 920 925 911 897 891 892 890 882 882 883 878 869 862 873 906 940 974 1002 1028 1060 1095 1137 1175 1186 1183 1178 1172 1168 1163 1151 1136 1121 1107 1095 1082 1070 1057 1045 1039 1044 1069 1102
1123 1110 1101 1087 1077 1082 1093 1078 1046 1012 992 997 1006 1007 1013 1011 991 974 974 995 1022 1027 994 951 920 906 903 903 883 842 807 796 793 776 757 716 670 629 596 570 563 579 603 628 646 648 634 615 598 596 619 653 674 662 634 609 590 577 565 550 532 516 498 481 477 475 468 458 439 414 403 415 435 446 447 440 428 419 417 408 398 397 390 380 378 393 427 448 446 430 405 386 371 357 349 347 347 348 348 348 348 348 348 348 348 348 348 348 348 348 348 348 348 348 348 348 348 348 348 348 348 348 348 348 348 348 348 348 348 348 348 348 348 348 348 348 348 348 348 348 348 348 348 348 348 348 348 348 348 348 348 348 348 348 348 348 348 348 348 348 348 348 348 348 348 348 348 348 348 348 348 348 348 348 348 348 348 348 348 348 348 348 348 348 348 348 348 348 348 348 348 348 348 348 348 348 348 347 347 348 348 349 350 350 351 354 361 379 406 427 450 481 521 546 537 521 539 571 594 614 622 608 588 579 577 571 563 556 550 563 600 649 700 754 797 823 843 849 830 809 797 791 795 799 800 803 815 836 866 911 957 972 956 934 914 892 874 855 834 813 794 778 760 746 756 782 804 801 776 749 723 702 681 674 690 704 713 722 735 751 774 800 826 848 874 885 882 872 861 850 840 827 809 791 774 754 730 707 687 666 649 648 680 735 777 791 811 845 878 912 942 949 933 910 887 862 837 814 794 778 762 737 707 680 660 651 656 668 674 685 707 733 759 789 817 849 886 922 948 960 951 931 907 878 849 823 797 770 747 738 746 768 791 810 828 846 867 888 913 931 928 915 912 913 912 910 908 906 900 890 879 887 923 968 1010 1038 1057 1083 1111 1148 1186 1207 1205 1199 1195 1193 1187 1174 1156 1140 1128 1119 1108 1094 1080 1068 1061 1062 1083 1115
1146 1138 1130 1120 1108 1103 1109 1092 1059 1032 1025 1036 1042 1050 1059 1042 1021 1010 1008 1021 1043 1046 1020 987 957 943 949 947 909 864 843 843 829 790 754 711 669 633 605 580 562 560 574 595 614 623 615 598 581 584 609 639 656 642 617 593 575 562 549 536 519 503 485 467 464 460 450 434 414 407 419 437 454 463 467 465 460 451 444 434 423 410 390 377 379 400 430 444 440 422 399 381 367 354 348 347 348 348 348 348 348 348 348 348 348 348 348 348 348 348 348 348 348 348 348 348 348 348 348 348 348 348 348 348 348 348 348 348 348 348 348 348 348 348 348 348 348 348 348 348 348 348 348 348 348 348 348 348 348 348 348 348 348 348 348 348 348 348 348 348 348 348 348 348 348 348 348 348 348 348 348 348 348 348 348 348 348 348 348 348 348 348 348 348 348 348 348 348 348 348 348 348 348 348 348 347 348 348 347 347 347 347 349 354 361 371 385 405 430 450 473 505 540 566 562 547 569 601 619 640 645 630 616 612 610 604 603 597 584 580 595 631 684 738 783 831 869 879 859 834 818 812 816 821 825 833 851 868 895 948 984 979 955 933 911 889 871 854 833 806 781 768 764 772 791 815 822 805 781 757 731 706 686 691 713 725 733 741 755 773 792 821 855 878 905 920 918 905 887 869 851 835 818 799 781 759 737 717 697 678 663 662 689 742 793 813 830 861 894 932 963 964 942 917 891 865 839 817 797 780 762 737 710 687 669 661 668 683 693 705 729 754 773 790 813 847 886 923 961 982 969 941 912 881 854 831 808 788 776 764 757 771 796 822 845 861 873 891 917 943 953 945 941 940 939 936 932 928 921 910 897 898 930 979 1023 1061 1084 1106 1133 1166 1197 1220 1227 1224 1220 1215 1204 1189 1174 1159 1146 1137 1126 1113 1100 1088 1080 1076 1093 1125
1177 1170 1162 1150 1133 1124 1124 1108 1078 1067 1072 1080 1084 1093 1094 1071 1054 1050 1046 1047 1057 1067 1057 1035 1008 993 996 975 932 899 891 883 846 796 754 712 673 645 629 608 578 552 549 564 582 594 593 580 565 573 598 622 632 618 595 574 557 543 531 518 501 485 471 456 445 434 420 409 407 423 444 459 471 479 481 482 478 467 456 446 434 419 400 378 373 395 430 441 432 411 391 376 363 352 348 347 348 348 348 348 348 348 348 348 348 348 348 348 348 348 348 348 348 348 348 348 348 348 348 348 348 348 348 348 348 348 348 348 348 348 348 348 348 348 348 348 348 348 348 348 348 348 348 348 348 348 348 348 348 348 348 348 348 348 348 348 348 348 348 348 348 348 348 348 348 348 348 348 348 348 348 348 348 348 348 348 348 348 348 348 348 348 348 348 348 348 348 348 348 348 348 348 348 348 348 348 348 347 347 348 350 355 366 379 392 400 410 427 450 471 495 525 559 589 587 575 597 628 649 669 674 660 657 662 656 650 647 634 618 608 607 631 676 724 777 832 875 899 891 866 846 838 838 842 850 862 883 904 935 981 993 977 953 932 912 891 868 844 819 793 780 783 792 809 828 841 831 806 782 759 735 711 693 704 729 744 756 764 776 795 817 844 875 904 935 948 942 923 903 884 864 843 826 808 790 769 750 732 711 694 680 677 707 754 800 830 849 875 910 952 979 969 943 917 893 868 844 822 801 783 763 740 718 699 684 673 674 685 701 720 744 772 792 806 825 852 887 926 966 986 970 940 912 882 859 838 820 810 801 787 773 778 801 834 864 881 889 907 934 964 981 975 969 966 963 960 958 954 944 931 918 912 931 968 1004 1043 1075 1101 1134 1171 1189 1209 1235 1245 1237 1225 1209 1194 1183 1171 1161 1150 1137 1126 1117 1107 1100 1088 1096 1126
1205 1201 1192 1175 1154 1144 1141 1126 1113 1115 1118 1112 1105 1108 1097 1075 1069 1069 1059 1039 1034 1055 1073 1062 1040 1031 1030 1006 972 945 928 897 848 802 759 718 683 666 663 639 599 563 542 541 550 558 559 553 548 562 583 599 603 591 571 552 536 522 511 498 480 462 447 438 426 412 410 417 430 449 464 478 490 497 501 503 493 477 464 451 434 416 393 370 368 394 427 434 421 403 387 372 359 350 348 347 348 348 348 348 348 348 348 348 348 348 348 348 348 348 348 348 348 348 348 348 348 348 348 348 348 348 348 348 348 348 348 348 348 348 348 348 348 348 348 348 348 348 348 348 348 348 348 348 348 348 348 348 348 348 348 348 348 348 348 348 348 348 348 348 348 348 348 348 348 348 348 348 348 348 348 348 348 348 348 348 348 348 348 348 348 348 348 348 348 348 348 348 348 348 348 348 348 348 347 348 347 347 349 356 368 379 393 405 416 425 434 448 467 491 519 550 583 615 615 605 629 659 681 701 707 696 701 715 709 698 686 663 642 629 624 646 689 732 781 828 869 904 912 895 876 866 865 872 882 894 918 941 973 996 990 974 954 934 918 897 869 837 807 789 796 814 828 843 855 850 830 804 778 756 735 714 701 714 739 759 775 784 797 818 842 867 897 929 959 970 958 937 917 899 879 858 838 822 806 786 767 748 731 718 703 694 721 765 806 844 872 891 922 962 982 969 940 912 890 868 846 825 805 787 767 746 728 713 698 687 683 687 702 722 743 768 792 812 835 861 892 931 970 990 974 944 917 892 875 858 842 833 823 806 787 791 816 844 875 897 908 928 957 986 1004 1000 995 990 986 988 989 982 969 956 943 932 936 956 977 1006 1041 1071 1106 1139 1159 1188 1227 1247 1239 1225 1210 1197 1189 1182 1174 1164 1151 1141 1134 1128 1119 1103 1103 1128
1202 1207 1205 1189 1172 1165 1162 1156 1153 1138 1115 1097 1081 1079 1071 1047 1038 1038 1028 1005 997 1019 1049 1058 1055 1052 1047 1026 999 973 941 895 847 805 763 727 701 695 693 663 617 581 555 538 530 526 524 524 527 542 559 569 570 562 546 528 513 501 492 479 459 438 424 420 416 416 431 447 461 474 486 499 510 518 526 523 503 483 470 458 437 411 384 364 372 405 426 424 411 398 385 370 357 350 348 347 348 348 348 348 348 348 348 348 348 348 348 348 348 348 348 348 348 348 348 348 348 348 348 348 348 348 348 348 348 348 348 348 348 348 348 348 348 348 348 348 348 348 348 348 348 348 348 348 348 348 348 348 348 348 348 348 348 348 348 348 348 348 348 348 348 348 348 348 348 348 348 348 348 348 348 348 348 348 348 348 348 348 348 348 348 348 348 348 348 348 348 348 348 348 348 348 348 348 348 347 347 348 357 373 385 395 404 413 424 438 455 468 486 515 547 580 611 639 641 638 664 693 716 736 744 738 748 761 746 726 703 678 660 649 640 661 703 741 778 819 861 896 916 916 904 897 898 906 912 924 955 979 999 1001 985 971 955 935 916 891 863 833 807 800 819 841 857 870 865 841 817 794 770 749 730 714 711 723 744 767 785 800 819 841 865 891 920 950 976 987 976 958 940 920 901 882 860 841 824 807 786 766 752 740 724 709 729 776 820 862 896 911 933 963 979 964 934 908 886 867 848 828 810 792 773 756 741 728 716 709 701 695 704 721 741 762 783 809 841 871 902 939 976 994 981 958 935 915 900 885 867 852 839 821 799 801 838 868 889 911 928 952 978 1007 1028 1027 1020 1013 1011 1013 1010 1002 990 978 966 953 956 972 987 1006 1027 1048 1078 1110 1138 1176 1220 1246 1243 1227 1211 1200 1196 1193 1188 1180 1168 1157 1152 1147 1138 1124 1121 1140
1164 1170 1181 1180 1174 1174 1170 1160 1149 1118 1086 1063 1043 1041 1042 1020 1001 999 995 978 967 982 1005 1025 1041 1039 1028 1012 999 981 951 909 857 809 770 742 732 734 718 678 635 604 580 562 544 517 496 493 497 509 524 531 533 529 516 504 494 485 476 461 438 423 421 424 429 443 459 474 487 498 509 519 527 537 546 536 509 488 474 462 440 410 381 364 375 409 423 418 405 394 384 370 357 350 348 347 348 348 348 348 348 348 348 348 348 348 348 348 348 348 348 348 348 348 348 348 348 348 348 348 348 348 348 348 348 348 348 348 348 348 348 348 348 348 348 348 348 348 348 348 348 348 348 348 348 348 348 348 348 348 348 348 348 348 348 348 348 348 348 348 348 348 348 348 348 348 348 348 348 348 348 348 348 348 348 348 348 348 348 348 348 348 348 348 348 348 348 348 348 348 348 348 348 348 348 347 347 352 369 383 390 398 406 414 426 447 470 486 506 539 573 601 631 661 663 662 688 720 749 771 785 781 785 787 766 739 712 693 680 669 661 668 694 732 774 814 849 876 902 924 933 931 927 930 937 956 990 1013 1015 1000 983 969 952 930 907 882 857 834 816 821 846 864 879 879 859 831 809 788 766 744 725 719 724 737 757 778 796 820 844 865 888 911 940 975 998 1002 988 970 954 934 916 899 878 856 835 817 795 776 765 753 735 723 740 782 825 866 910 934 944 961 975 958 930 908 887 870 853 835 818 800 783 768 758 749 742 736 720 707 709 725 747 767 786 811 844 874 907 945 983 1002 992 978 962 946 930 909 887 871 857 837 814 807 837 883 910 927 949 975 997 1026 1049 1053 1046 1041 1040 1035 1030 1024 1014 999 984 971 978 1004 1022 1039 1051 1058 1075 1105 1134 1173 1216 1249 1251 1234 1219 1210 1208 1205 1201 1195 1184 1175 1169 1163 1161 1153 1148 1163
1131 1128 1143 1148 1146 1154 1144 1123 1106 1088 1064 1030 1007 1010 1015 999 974 967 969 955 937 950 968 990 1013 1011 998 988 986 979 953 920 871 820 787 771 774 774 742 700 663 633 613 598 578 539 503 485 476 477 484 490 494 494 489 485 479 470 458 440 427 430 443 453 462 475 489 501 511 522 530 537 545 555 559 542 516 493 475 461 442 413 382 363 373 406 421 414 399 384 377 366 355 349 348 347 348 348 348 348 348 348 348 348 348 348 348 348 348 348 348 348 348 348 348 348 348 348 348 348 348 348 348 348 348 348 348 348 348 348 348 348 348 348 348 348 348 348 348 348 348 348 348 348 348 348 348 348 348 348 348 348 348 348 348 348 348 348 348 348 348 348 348 348 348 348 348 348 348 348 348 348 348 348 348 348 348 348 348 348 348 348 348 348 348 348 348 348 348 348 348 348 348 347 348 347 348 358 377 386 392 399 406 414 432 464 489 504 525 553 585 615 648 684 686 676 695 731 768 795 817 818 810 796 772 748 727 714 704 699 697 692 696 726 765 798 824 853 887 924 951 960 955 955 966 993 1028 1036 1019 998 980 965 949 928 905 881 857 837 827 840 868 888 892 877 853 829 809 790 769 747 733 736 741 752 776 798 816 841 866 889 910 931 961 1000 1019 1014 998 979 961 941 924 907 887 866 841 819 800 786 775 759 741 733 749 784 821 859 907 944 959 970 974 954 930 911 894 877 861 845 829 811 795 783 778 772 763 754 738 719 717 731 754 777 797 817 845 874 907 946 986 1012 1011 1001 990 975 956 931 906 891 877 859 840 824 833 877 923 949 969 993 1015 1043 1069 1076 1072 1070 1069 1065 1059 1050 1037 1019 1001 990 997 1027 1055 1076 1087 1088 1094 1115 1141 1176 1216 1251 1261 1248 1236 1228 1222 1218 1213 1207 1200 1194 1187 1183 1189 1187 1177 1184
1118 1101 1108 1110 1110 1118 1109 1090 1069 1055 1037 1007 984 982 990 978 950 936 938 926 909 918 934 962 987 985 968 960 964 967 943 911 871 836 811 798 795 787 759 722 689 661 639 616 588 550 520 499 481 465 457 456 459 462 463 462 459 452 437 427 436 457 474 483 492 503 514 521 531 542 550 558 567 574 567 544 519 496 476 459 443 421 392 370 367 392 410 405 385 368 363 358 351 348 348 347 348 348 348 348 348 348 348 348 348 348 348 348 348 348 348 348 348 348 348 348 348 348 348 348 348 348 348 348 348 348 348 348 348 348 348 348 348 348 348 348 348 348 348 348 348 348 348 348 348 348 348 348 348 348 348 348 348 348 348 348 348 348 348 348 348 348 348 348 348 348 348 348 348 348 348 348 348 348 348 348 348 348 348 348 348 348 348 348 348 348 348 348 348 348 348 348 348 348 347 347 349 365 382 388 392 398 406 420 449 490 517 536 553 570 598 629 664 704 712 699 705 729 764 798 831 845 832 806 783 765 749 737 732 737 744 733 719 724 745 772 804 841 881 921 954 976 986 994 1009 1036 1056 1046 1023 1000 980 963 948 931 907 884 862 844 839 858 889 909 900 876 852 831 813 796 778 759 752 762 764 769 790 819 847 870 890 913 938 960 990 1024 1035 1027 1010 990 971 951 933 915 898 878 852 828 815 801 785 765 745 738 755 793 831 866 904 941 971 985 978 955 933 916 902 887 872 856 842 827 814 804 799 793 780 768 750 731 727 742 766 789 807 826 850 878 908 946 985 1020 1033 1028 1016 998 976 952 931 917 903 885 866 850 850 880 922 958 985 1007 1029 1060 1088 1100 1101 1100 1100 1096 1085 1071 1055 1037 1022 1017 1022 1045 1079 1104 1117 1123 1123 1135 1160 1188 1223 1259 1271 1259 1248 1239 1232 1228 1224 1219 1215 1212 1208 1208 1215 1216 1207 1205
